# .PCD v0.7 - Point Cloud Data file format
VERSION 0.7
FIELDS x y z rgba
SIZE 4 4 4 4
TYPE F F F U
COUNT 1 1 1 1
WIDTH 1195
HEIGHT 1
VIEWPOINT 0 0 0 1 0 0 0
POINTS 1195
DATA ascii
-0.02508 -0.09196001 0.798 4279253349
-0.02514286 -0.09066667 0.8 4279055714
-0.02514286 -0.08914285 0.8 4278857823
-0.02514286 -0.08761904 0.8 4278660448
-0.02514286 -0.08609524 0.8 4279250274
-0.02520571 -0.08478286 0.802 4279906919
-0.02526857 -0.08346286 0.804 4279908716
-0.02526857 -0.08193143 0.804 4279908194
-0.02526857 -0.0804 0.804 4280563801
-0.02533143 -0.07906476 0.8060001 4281219905
-0.02539429 -0.07772191 0.808 4281745450
-0.02545714 -0.07637143 0.8100001 4282269978
-0.02552 -0.07501333 0.812 4282269963
-0.02545714 -0.07328572 0.8100001 4282334730
-0.02552 -0.07192001 0.812 4282400010
-0.02552 -0.07037334 0.812 4282532363
-0.02552 -0.06882667 0.812 4282533645
-0.02558286 -0.06744572 0.814 4282532621
-0.02558286 -0.06589524 0.814 4282663692
-0.02561429 -0.06442381 0.8150001 4282860555
-0.02561429 -0.06287143 0.8150001 4283057929
-0.02567714 -0.06146952 0.817 4283255054
-0.02567714 -0.05991334 0.817 4282861587
-0.02574 -0.0585 0.8190001 4282468633
-0.02580286 -0.05707905 0.821 4282599967
-0.02580286 -0.05551524 0.821 4282730773
-0.02580286 -0.05395143 0.821 4282796298
-0.02586571 -0.05251524 0.823 4282861834
-0.02592857 -0.05107143 0.825 4282993163
-0.02599143 -0.04962 0.827 4283189777
-0.02599143 -0.04804476 0.827 4283058711
-0.02605429 -0.04658191 0.8290001 4282927630
-0.02611714 -0.04511143 0.831 4282796037
-0.02618 -0.04363333 0.8330001 4282664457
-0.02618 -0.04204667 0.8330001 4282401549
-0.02624286 -0.04055715 0.835 4282203911
-0.02630571 -0.03906 0.837 4281940994
-0.02636857 -0.03755524 0.839 4281678084
-0.02636857 -0.03595714 0.839 4281216519
-0.02643143 -0.03444095 0.841 4280821254
-0.02649429 -0.03291715 0.8430001 4280492037
-0.02649429 -0.03131143 0.8430001 4280164358
-0.02655714 -0.02977619 0.845 4279771400
-0.02655714 -0.02816667 0.845 4279444238
-0.02252667 -0.26378 0.763 4286085172
-0.02252667 -0.2623267 0.763 4286217057
-0.02246762 -0.2601895 0.761 4286354022
-0.02246762 -0.25874 0.761 4286485094
-0.0224381 -0.2569524 0.7600001 4286616172
-0.02252667 -0.2565133 0.763 4286812019
-0.02252667 -0.25506 0.763 4287074176
-0.02252667 -0.2536067 0.763 4287205262
-0.02252667 -0.2521533 0.763 4287338374
-0.02258572 -0.2513572 0.765 4287664778
-0.02258572 -0.2499 0.765 4287927199
-0.02264476 -0.2490924 0.767 4290290357
-0.02264476 -0.2476314 0.767 4292666075
-0.02267429 -0.2464914 0.768 4292994043
-0.02267429 -0.2450286 0.768 4293320169
-0.02267429 -0.2435657 0.768 4292070099
-0.02267429 -0.2421029 0.768 4290887860
-0.02264476 -0.2403267 0.767 4290822293
-0.02264476 -0.2388657 0.767 4290757024
-0.02258572 -0.2367857 0.765 4290888866
-0.02258572 -0.2353286 0.765 4291020708
-0.02252667 -0.23326 0.763 4291151273
-0.0224381 -0.2308953 0.7600001 4291284385
-0.0224381 -0.2294476 0.7600001 4291480989
-0.02237905 -0.2274 0.758 4291743909
-0.02232 -0.22536 0.756 4289836971
-0.02229048 -0.2236238 0.7550001 4287923381
-0.02229048 -0.2221857 0.7550001 4288846782
-0.02223143 -0.2201629 0.753 4289843679
-0.02220191 -0.2184381 0.752 4288664059
-0.02214286 -0.2164286 0.7500001 4287479293
-0.02214286 -0.215 0.7500001 4287871230
-0.02214286 -0.2135714 0.7500001 4288265464
-0.02214286 -0.2121429 0.7500001 4288002294
-0.02208381 -0.2101524 0.748 4287739124
-0.02205429 -0.2084486 0.747 4285570028
-0.02199524 -0.2064714 0.7450001 4283400932
-0.02205429 -0.2056029 0.747 4283465948
-0.02199524 -0.2036334 0.7450001 4283597015
-0.02199524 -0.2022143 0.7450001 4282350291
-0.02199524 -0.2007953 0.7450001 4281100232
-0.02193619 -0.198841 0.743 4285297342
-0.02193619 -0.1974257 0.743 4289576662
-0.02190667 -0.1957467 0.742 4289910510
-0.02184762 -0.1938095 0.74 4290298328
-0.02184762 -0.1924 0.74 4288515775
-0.02184762 -0.1909905 0.74 4286742698
-0.02190667 -0.1900933 0.742 4286743197
-0.02190667 -0.18868 0.742 4286809757
-0.02190667 -0.1872667 0.742 4286875553
-0.02193619 -0.1861038 0.743 4286941577
-0.02193619 -0.1846886 0.743 4283983222
-0.02199524 -0.1837667 0.7450001 4281024102
-0.02199524 -0.1823476 0.7450001 4281608791
-0.02205429 -0.1814143 0.747 4282197325
-0.02208381 -0.1802324 0.748 4284302660
-0.02208381 -0.1788076 0.748 4286406716
-0.02208381 -0.1773829 0.748 4286472241
-0.02214286 -0.1764286 0.7500001 4286603555
-0.02214286 -0.175 0.7500001 4286734612
-0.02214286 -0.1735714 0.7500001 4286800144
-0.02214286 -0.1721429 0.7500001 4286734348
-0.02214286 -0.1707143 0.7500001 4286602770
-0.02220191 -0.1697372 0.752 4286537245
-0.02220191 -0.1683048 0.752 4286471706
-0.02220191 -0.1668724 0.752 4286405917
-0.02220191 -0.16544 0.752 4286405653
-0.02220191 -0.1640076 0.752 4286339600
-0.02223143 -0.1627914 0.753 4286273804
-0.02229048 -0.1617857 0.7550001 4286077458
-0.02232 -0.16056 0.756 4285946636
-0.02237905 -0.159541 0.758 4285619211
-0.0224381 -0.1585143 0.7600001 4285357832
-0.0224381 -0.1570667 0.7600001 4284961548
-0.0224381 -0.1556191 0.7600001 4284631597
-0.02246762 -0.1543743 0.761 4283974479
-0.02246762 -0.1529248 0.761 4283314512
-0.02252667 -0.1518733 0.763 4282658129
-0.02252667 -0.15042 0.763 4281998928
-0.02252667 -0.1489667 0.763 4281282127
-0.02252667 -0.1475133 0.763 4280563521
-0.02258572 -0.1464429 0.765 4280825395
-0.02258572 -0.1449857 0.765 4281087535
-0.02258572 -0.1435286 0.765 4281084460
-0.02264476 -0.1424429 0.767 4281149998
-0.02267429 -0.1411657 0.768 4282071601
-0.02273333 -0.1400667 0.77 4282993451
-0.02282191 -0.13914 0.7730001 4281086502
-0.02282191 -0.1376676 0.7730001 4279242561
-0.02282191 -0.1361952 0.7730001 4279575901
-0.02288095 -0.1350714 0.775 4279909989
-0.02288095 -0.1335952 0.775 4280172141
-0.02288095 -0.132119 0.775 4280434032
-0.02294 -0.13098 0.777 4281353075
-0.02294 -0.1295 0.777 4282273137
-0.02294 -0.12802 0.777 4281683567
-0.02294 -0.12654 0.777 4281092208
-0.02299905 -0.1253819 0.779 4280828274
-0.02299905 -0.1238981 0.779 4280565368
-0.02299905 -0.1224143 0.779 4281681535
-0.02302857 -0.1210857 0.78 4282865786
-0.02308762 -0.1199067 0.7820001 4282800758
-0.02308762 -0.1184172 0.7820001 4282738556
-0.02308762 -0.1169276 0.7820001 4281752963
-0.02314667 -0.1157333 0.784 4280767871
-0.02314667 -0.11424 0.784 4280434556
-0.02320571 -0.1130343 0.786 4280105847
-0.02320571 -0.1115371 0.786 4281157490
-0.02326476 -0.11032 0.788 4282209648
-0.02326476 -0.1088191 0.788 4282602351
-0.02335333 -0.1077267 0.791 4282995312
-0.02335333 -0.10622 0.791 4282537073
-0.02335333 -0.1047133 0.791 4282078824
-0.02341238 -0.1034676 0.793 4281093471
-0.02341238 -0.1019571 0.793 4280171363
-0.02341238 -0.1004467 0.793 4279908712
-0.02347143 -0.09918572 0.795 4279711835
-0.02347143 -0.09767143 0.795 4279513679
-0.02353048 -0.09639905 0.7970001 4279316313
-0.02356 -0.09500001 0.798 4279382883
-0.02356 -0.09348001 0.798 4279449953
-0.02361905 -0.09219048 0.8 4279383903
-0.02361905 -0.09066667 0.8 4279317853
-0.0236781 -0.08936572 0.802 4279185244
-0.0236781 -0.0878381 0.802 4279119456
-0.0236781 -0.08631048 0.802 4279382372
-0.02373714 -0.08499429 0.804 4279711076
-0.02379619 -0.08367048 0.8060001 4279908708
-0.02379619 -0.08213524 0.8060001 4280169564
-0.02379619 -0.0806 0.8060001 4280825429
-0.02385524 -0.07926096 0.808 4281547577
-0.02391429 -0.07791429 0.8100001 4281942046
-0.02397333 -0.07656 0.812 4282335510
-0.02403238 -0.07519809 0.814 4282269966
-0.02403238 -0.07364762 0.814 4282268171
-0.02403238 -0.07209715 0.814 4282203656
-0.02403238 -0.07054666 0.814 4282204676
-0.02403238 -0.06899619 0.814 4282335233
-0.02406191 -0.06752858 0.8150001 4282466054
-0.02406191 -0.06597619 0.8150001 4282663180
-0.02412095 -0.06458191 0.817 4282860556
-0.02406191 -0.06287143 0.8150001 4282926860
-0.02418 -0.06162 0.8190001 4283058450
-0.02418 -0.06006 0.8190001 4282862105
-0.02423905 -0.05864286 0.821 4282600738
-0.02423905 -0.05707905 0.821 4282665260
-0.0242981 -0.05565048 0.823 4282730778
-0.0242981 -0.05408286 0.823 4282796297
-0.02435714 -0.05264286 0.825 4282927369
-0.02435714 -0.05107143 0.825 4282992905
-0.02441619 -0.04962 0.827 4283059215
-0.02447524 -0.04816096 0.8290001 4282927637
-0.02453429 -0.04669429 0.831 4282862094
-0.02453429 -0.04511143 0.831 4282664711
-0.02459333 -0.04363333 0.8330001 4282533386
-0.02465238 -0.04214762 0.835 4282335502
-0.02471143 -0.04065429 0.837 4282138376
-0.02471143 -0.03906 0.837 4281809411
-0.02477048 -0.03755524 0.839 4281481219
-0.02477048 -0.03595714 0.839 4281084676
-0.02482952 -0.03444095 0.841 4280754690
-0.02488857 -0.03291715 0.8430001 4280492033
-0.02488857 -0.03131143 0.8430001 4280294662
-0.02494762 -0.02977619 0.845 4280229643
-0.0210181 -0.2601895 0.761 4284494387
-0.0210181 -0.25874 0.761 4284689973
-0.02099048 -0.2569524 0.7600001 4284888631
-0.02107333 -0.2565133 0.763 4285414201
-0.02112857 -0.2557286 0.765 4286009670
-0.02107333 -0.2536067 0.763 4286209878
-0.02112857 -0.2528143 0.765 4286407758
-0.02112857 -0.2513572 0.765 4287326535
-0.02112857 -0.2499 0.765 4288247630
-0.02118381 -0.2490924 0.767 4290880860
-0.02126667 -0.2486 0.77 4293576595
-0.02126667 -0.2471333 0.77 4293391053
-0.02121143 -0.2450286 0.768 4293191124
-0.02126667 -0.2442 0.77 4292396261
-0.02121143 -0.2421029 0.768 4291676101
-0.02118381 -0.2403267 0.767 4291218083
-0.02118381 -0.2388657 0.767 4290824355
-0.02112857 -0.2367857 0.765 4291020965
-0.02112857 -0.2353286 0.765 4291282858
-0.02112857 -0.2338714 0.765 4291282095
-0.02107333 -0.2318067 0.763 4291349932
-0.0210181 -0.2297495 0.761 4291481510
-0.02093524 -0.2274 0.758 4291612588
-0.02093524 -0.2259562 0.758 4289507512
-0.02088 -0.22392 0.756 4287470787
-0.02085238 -0.2221857 0.7550001 4288783298
-0.02079714 -0.2201629 0.753 4290171104
-0.02076952 -0.2184381 0.752 4288730368
-0.02076952 -0.2170057 0.752 4287347451
-0.02071429 -0.215 0.7500001 4288129790
-0.02071429 -0.2135714 0.7500001 4288919543
-0.02071429 -0.2121429 0.7500001 4288071158
-0.02071429 -0.2107143 0.7500001 4287280114
-0.02065905 -0.2087276 0.748 4285239020
-0.02063143 -0.2070257 0.747 4283270886
-0.02063143 -0.2056029 0.747 4283466721
-0.02063143 -0.20418 0.747 4283728344
-0.02063143 -0.2027571 0.747 4282285520
-0.02057619 -0.2007953 0.7450001 4280905927
-0.02057619 -0.1993762 0.7450001 4285822651
-0.02057619 -0.1979572 0.7450001 4290757588
-0.02052095 -0.1960105 0.743 4290109418
-0.02049333 -0.1943333 0.742 4289507790
-0.02049333 -0.19292 0.742 4288053432
-0.02049333 -0.1915067 0.742 4286677158
-0.02049333 -0.1900933 0.742 4286677915
-0.02052095 -0.1889343 0.743 4286744218
-0.02052095 -0.187519 0.743 4286613917
-0.02052095 -0.1861038 0.743 4286545031
-0.02057619 -0.1851857 0.7450001 4283980654
-0.02057619 -0.1837667 0.7450001 4281484642
-0.02057619 -0.1823476 0.7450001 4280692567
-0.02065905 -0.1816572 0.748 4279971922
-0.02065905 -0.1802324 0.748 4283052878
-0.02065905 -0.1788076 0.748 4286203976
-0.02071429 -0.1778572 0.7500001 4286473283
-0.02071429 -0.1764286 0.7500001 4286800701
-0.02071429 -0.175 0.7500001 4286998575
-0.02076952 -0.1740343 0.752 4287194671
-0.02076952 -0.1726019 0.752 4286932779
-0.02076952 -0.1711695 0.752 4286734891
-0.02079714 -0.1699629 0.753 4286669615
-0.02079714 -0.1685286 0.753 4286603819
-0.02085238 -0.1675381 0.7550001 4286539051
-0.02085238 -0.1661 0.7550001 4286538030
-0.02085238 -0.1646619 0.7550001 4286472748
-0.02085238 -0.1632238 0.7550001 4286471728
-0.02088 -0.162 0.756 4286209842
-0.02093524 -0.1609848 0.758 4286012718
-0.02093524 -0.159541 0.758 4285488689
-0.02099048 -0.1585143 0.7600001 4284959795
-0.0210181 -0.1572733 0.761 4283974963
-0.0210181 -0.1558238 0.761 4283055171
-0.02107333 -0.15478 0.763 4281612371
-0.02107333 -0.1533267 0.763 4280234066
-0.02107333 -0.1518733 0.763 4280164689
-0.02112857 -0.1508143 0.765 4280100425
-0.02112857 -0.1493572 0.765 4280953665
-0.02112857 -0.1479 0.765 4281809197
-0.02112857 -0.1464429 0.765 4281416474
-0.02118381 -0.1453648 0.767 4281020697
-0.02118381 -0.1439038 0.767 4281412376
-0.02121143 -0.1426286 0.768 4281872675
-0.02126667 -0.1415333 0.77 4283054638
-0.02132191 -0.1404305 0.772 4284236081
-0.02134953 -0.13914 0.7730001 4281552437
-0.02134953 -0.1376676 0.7730001 4278857033
-0.02134953 -0.1361952 0.7730001 4279382622
-0.02140476 -0.1350714 0.775 4279909733
-0.02146 -0.13394 0.777 4280172908
-0.02146 -0.13246 0.777 4280500079
-0.02146 -0.13098 0.777 4281746801
-0.02151524 -0.1298333 0.779 4283058800
-0.02151524 -0.1283495 0.779 4282011759
-0.02151524 -0.1268657 0.779 4280959857
-0.02151524 -0.1253819 0.779 4280499571
-0.02154286 -0.1240572 0.78 4280040824
-0.02154286 -0.1225714 0.78 4281939325
-0.0215981 -0.1213962 0.7820001 4283913592
-0.02165334 -0.1202133 0.784 4283785331
-0.02165334 -0.11872 0.784 4283654521
-0.02165334 -0.1172267 0.784 4282738816
-0.02165334 -0.1157333 0.784 4281814652
-0.02170857 -0.1145314 0.786 4281418617
-0.02176381 -0.1133219 0.788 4281089139
-0.02176381 -0.111821 0.788 4281814893
-0.02176381 -0.11032 0.788 4282602863
-0.02179143 -0.1089571 0.789 4283127665
-0.02184667 -0.1077267 0.791 4283717495
-0.02184667 -0.10622 0.791 4282800253
-0.02190191 -0.1049781 0.793 4281945716
-0.02190191 -0.1034676 0.793 4280895596
-0.02190191 -0.1019571 0.793 4279843947
-0.02195714 -0.1007 0.795 4279777130
-0.02195714 -0.09918572 0.795 4279710561
-0.02201238 -0.09791715 0.7970001 4279578456
-0.02204 -0.09652001 0.798 4279513694
-0.02204 -0.09500001 0.798 4279514469
-0.02204 -0.09348001 0.798 4279514721
-0.02215048 -0.09242096 0.802 4279580253
-0.02215048 -0.09089334 0.802 4279644501
-0.02220571 -0.08958857 0.804 4279578446
-0.02220571 -0.08805714 0.804 4279578710
-0.02220571 -0.08652572 0.804 4279579999
-0.02226095 -0.08520572 0.8060001 4279580255
-0.02231619 -0.0838781 0.808 4279974239
-0.02231619 -0.08233905 0.808 4280431702
-0.02231619 -0.0808 0.808 4281152333
-0.02231619 -0.07926096 0.808 4281875763
-0.02242667 -0.07810666 0.812 4282139418
-0.02248191 -0.07674857 0.814 4282401043
-0.02248191 -0.07519809 0.814 4282335499
-0.02250953 -0.0737381 0.8150001 4282269704
-0.02250953 -0.07218572 0.8150001 4282073094
-0.02256476 -0.07080667 0.817 4281874947
-0.02256476 -0.06925048 0.817 4282136577
-0.02262 -0.06786001 0.8190001 4282465284
-0.02256476 -0.0661381 0.817 4282663176
-0.02256476 -0.06458191 0.817 4282860297
-0.02262 -0.06318001 0.8190001 4282861835
-0.02267524 -0.06177048 0.821 4282927374
-0.02267524 -0.06020667 0.821 4282862610
-0.02267524 -0.05864286 0.821 4282796823
-0.02273048 -0.0572181 0.823 4282730525
-0.02273048 -0.05565048 0.823 4282730513
-0.02278572 -0.05421429 0.825 4282861829
-0.02278572 -0.05264286 0.825 4283058438
-0.02284095 -0.05119524 0.827 4282992904
-0.02289619 -0.04974001 0.8290001 4282927628
-0.02289619 -0.04816096 0.8290001 4282861329
-0.02295143 -0.04669429 0.831 4282795790
-0.02300667 -0.04522 0.8330001 4282598924
-0.02306191 -0.0437381 0.835 4282401548
-0.02311714 -0.04224857 0.837 4282269451
-0.02311714 -0.04065429 0.837 4282137351
-0.02317238 -0.03915334 0.839 4281677315
-0.02322762 -0.03764476 0.841 4281282820
-0.02322762 -0.03604286 0.841 4280953094
-0.02328286 -0.03452286 0.8430001 4280689156
-0.0233381 -0.03299524 0.845 4280558083
-0.0233381 -0.03138572 0.845 4280425736
-0.02342095 -0.02988191 0.848 4280687885
-0.01956857 -0.25874 0.761 4281729281
-0.01954286 -0.2569524 0.7600001 4282122497
-0.01962 -0.2565133 0.763 4283376897
-0.01967143 -0.2557286 0.765 4284557837
-0.01967143 -0.2542714 0.765 4284429338
-0.01967143 -0.2528143 0.765 4284231949
-0.01967143 -0.2513572 0.765 4284231681
-0.01967143 -0.2499 0.765 4284228865
-0.01972286 -0.2490924 0.767 4286996484
-0.01985143 -0.2492457 0.772 4289766986
-0.01985143 -0.2477752 0.772 4291675801
-0.0198 -0.2456667 0.77 4293589697
-0.01974857 -0.2435657 0.768 4292861430
-0.01974857 -0.2421029 0.768 4292203726
-0.01974857 -0.24064 0.768 4291744173
-0.01972286 -0.2388657 0.767 4291284649
-0.01972286 -0.2374048 0.767 4291414950
-0.01967143 -0.2353286 0.765 4291546028
-0.01967143 -0.2338714 0.765 4291611832
-0.01962 -0.2318067 0.763 4291678641
-0.01956857 -0.2297495 0.761 4291548077
-0.01956857 -0.2283 0.761 4291418297
-0.01954286 -0.2265524 0.7600001 4289572295
-0.01949143 -0.2245124 0.758 4287730895
-0.01944 -0.22248 0.756 4288852177
-0.01941429 -0.2207476 0.7550001 4289974500
-0.01936286 -0.2187286 0.753 4288465664
-0.01933714 -0.2170057 0.752 4287018749
-0.01933714 -0.2155733 0.752 4286886136
-0.01933714 -0.214141 0.752 4286755579
-0.01933714 -0.2127086 0.752 4286755579
-0.01928572 -0.2107143 0.7500001 4286690296
-0.01928572 -0.2092857 0.7500001 4285041901
-0.01923429 -0.2073029 0.748 4283402729
-0.01923429 -0.2058781 0.748 4283533798
-0.01923429 -0.2044533 0.748 4283664858
-0.01923429 -0.2030286 0.748 4282020558
-0.01920857 -0.2013343 0.747 4280376262
-0.01915715 -0.1993762 0.7450001 4285891773
-0.01915715 -0.1979572 0.7450001 4291417298
-0.01915715 -0.1965381 0.7450001 4289842665
-0.01910572 -0.1945952 0.743 4288324552
-0.01908 -0.19292 0.742 4287531438
-0.01910572 -0.1917648 0.743 4286742947
-0.01910572 -0.1903495 0.743 4286808979
-0.01910572 -0.1889343 0.743 4286875289
-0.01915715 -0.1880238 0.7450001 4286417050
-0.01915715 -0.1866048 0.7450001 4285953922
-0.01920857 -0.1856829 0.747 4284046950
-0.01920857 -0.18426 0.747 4282142047
-0.01928572 -0.1835714 0.7500001 4281155672
-0.01928572 -0.1821429 0.7500001 4280170072
-0.01928572 -0.1807143 0.7500001 4281676120
-0.01928572 -0.1792857 0.7500001 4283115865
-0.01928572 -0.1778572 0.7500001 4283514970
-0.01928572 -0.1764286 0.7500001 4283911251
-0.01933714 -0.1754667 0.752 4284172876
-0.01933714 -0.1740343 0.752 4284500296
-0.01933714 -0.1726019 0.752 4284631877
-0.01933714 -0.1711695 0.752 4284763204
-0.01936286 -0.1699629 0.753 4284501060
-0.01936286 -0.1685286 0.753 4284304451
-0.01941429 -0.1675381 0.7550001 4284107587
-0.01944 -0.16632 0.756 4283910473
-0.01944 -0.16488 0.756 4283580751
-0.01949143 -0.1638724 0.758 4283250512
-0.01949143 -0.1624286 0.758 4282920785
-0.01954286 -0.1614095 0.7600001 4282588759
-0.01956857 -0.1601724 0.761 4282262877
-0.01956857 -0.1587229 0.761 4281869915
-0.01962 -0.1576867 0.763 4281673050
-0.01962 -0.1562333 0.763 4281474649
-0.01962 -0.15478 0.763 4280756312
-0.01967143 -0.1537286 0.765 4279971925
-0.01967143 -0.1522714 0.765 4280496210
-0.01967143 -0.1508143 0.765 4281086786
-0.01967143 -0.1493572 0.765 4282008115
-0.01972286 -0.1482867 0.767 4282931226
-0.01974857 -0.1470171 0.768 4281615362
-0.0198 -0.1459333 0.77 4280297731
-0.0198 -0.1444667 0.77 4280887556
-0.0198 -0.143 0.77 4281546776
-0.0198 -0.1415333 0.77 4281742892
-0.01985143 -0.1404305 0.772 4281872184
-0.01987715 -0.13914 0.7730001 4280495172
-0.01992857 -0.1380238 0.775 4279118161
-0.01992857 -0.1365476 0.775 4279514463
-0.01998 -0.13542 0.777 4279975269
-0.01998 -0.13394 0.777 4280106860
-0.02003143 -0.132801 0.779 4280237934
-0.02003143 -0.1313172 0.779 4281025392
-0.02003143 -0.1298333 0.779 4281813359
-0.02005714 -0.1285143 0.78 4281091183
-0.02005714 -0.1270286 0.78 4280433778
-0.02005714 -0.1255429 0.78 4280171637
-0.02010857 -0.1243752 0.7820001 4279910776
-0.02010857 -0.1228857 0.7820001 4282009723
-0.02016 -0.1217067 0.784 4284110198
-0.02016 -0.1202133 0.784 4283719793
-0.02016 -0.11872 0.784 4283385207
-0.02021143 -0.1175257 0.786 4282074237
-0.02021143 -0.1160286 0.786 4280827514
-0.02026286 -0.1148229 0.788 4280761463
-0.02026286 -0.1133219 0.788 4280760688
-0.02026286 -0.111821 0.788 4281484649
-0.02028857 -0.11046 0.789 4282209902
-0.02028857 -0.1089571 0.789 4282800243
-0.02034 -0.1077267 0.791 4283458174
-0.02039143 -0.1064886 0.793 4282604170
-0.02039143 -0.1049781 0.793 4281681025
-0.02044286 -0.1037286 0.795 4280696953
-0.02044286 -0.1022143 0.795 4279778931
-0.02049429 -0.1009533 0.7970001 4279514477
-0.02049429 -0.09943524 0.7970001 4279316327
-0.02052 -0.09804 0.798 4279382113
-0.02057143 -0.0967619 0.8 4279514468
-0.02057143 -0.0952381 0.8 4279448935
-0.02057143 -0.09371429 0.8 4279383649
-0.02062286 -0.09242096 0.802 4279317339
-0.02067429 -0.09112 0.804 4279249485
-0.02072572 -0.08981144 0.8060001 4279381312
-0.02072572 -0.08827619 0.8060001 4279578957
-0.02072572 -0.08674096 0.8060001 4279579995
-0.02072572 -0.08520572 0.8060001 4279646043
-0.02077714 -0.0838781 0.808 4280170075
-0.02082857 -0.08254286 0.8100001 4280694096
-0.02082857 -0.081 0.8100001 4281416261
-0.02088 -0.07965334 0.812 4282139182
-0.02093143 -0.07829905 0.814 4282204695
-0.02093143 -0.07674857 0.814 4282269456
-0.02095714 -0.07529049 0.8150001 4282269705
-0.02100857 -0.07391905 0.817 4282269958
-0.02100857 -0.07236286 0.817 4281678596
-0.02106 -0.07098 0.8190001 4281082882
-0.02111143 -0.06958953 0.821 4282002945
-0.02111143 -0.06802572 0.821 4282923778
-0.02106 -0.0663 0.8190001 4282860036
-0.02106 -0.06474 0.8190001 4282794759
-0.02111143 -0.06333429 0.821 4282926346
-0.02111143 -0.06177048 0.821 4283123978
-0.02111143 -0.06020667 0.821 4282928139
-0.02116286 -0.05878571 0.823 4282665741
-0.02116286 -0.0572181 0.823 4282730255
-0.02121429 -0.05578572 0.825 4282860552
-0.02121429 -0.05421429 0.825 4282927361
-0.02126572 -0.05277048 0.827 4283058692
-0.02131714 -0.05131905 0.8290001 4282993160
-0.02136857 -0.04986 0.831 4282993418
-0.02136857 -0.04827714 0.831 4282796045
-0.02142 -0.04680667 0.8330001 4282664975
-0.02147143 -0.04532857 0.835 4282467090
-0.02152286 -0.04384286 0.837 4282335501
-0.02157429 -0.04234952 0.839 4282137865
-0.02157429 -0.04075143 0.839 4281940230
-0.02162571 -0.03924667 0.841 4281480195
-0.02162571 -0.03764476 0.841 4281085446
-0.02167714 -0.03612857 0.8430001 4280755721
-0.02172857 -0.03460477 0.845 4280492807
-0.02172857 -0.03299524 0.845 4280097797
-0.02172857 -0.03138572 0.845 4279767306
-0.02180572 -0.02988191 0.848 4280425743
-0.01821429 -0.2513572 0.765 4281217049
-0.01821429 -0.2499 0.765 4280297753
-0.01821429 -0.2484429 0.765 4283109401
-0.01838095 -0.2492457 0.772 4285944367
-0.01838095 -0.2477752 0.772 4289953612
-0.01833333 -0.2456667 0.77 4293964671
-0.01828571 -0.2435657 0.768 4293388213
-0.01828571 -0.2421029 0.768 4292797125
-0.01828571 -0.24064 0.768 4292271063
-0.01826191 -0.2388657 0.767 4291810505
-0.01826191 -0.2374048 0.767 4291808435
-0.01821429 -0.2353286 0.765 4291808949
-0.01821429 -0.2338714 0.765 4291875259
-0.01816667 -0.2318067 0.763 4292007094
-0.01816667 -0.2303533 0.763 4291614386
-0.01811905 -0.2283 0.761 4291283643
-0.01811905 -0.2268505 0.761 4289636557
-0.01809524 -0.2251048 0.7600001 4288063951
-0.01804762 -0.2230686 0.758 4288921049
-0.018 -0.22104 0.756 4289776876
-0.018 -0.2196 0.756 4288202751
-0.01792857 -0.2172943 0.753 4286689276
-0.01792857 -0.21586 0.753 4285634040
-0.01790476 -0.214141 0.752 4284650741
-0.01790476 -0.2127086 0.752 4285369072
-0.01790476 -0.2112762 0.752 4286155499
-0.01785714 -0.2092857 0.7500001 4284842476
-0.01785714 -0.2078572 0.7500001 4283599593
-0.01785714 -0.2064286 0.7500001 4283600871
-0.01780953 -0.2044533 0.748 4283596245
-0.01780953 -0.2030286 0.748 4281755587
-0.01780953 -0.2016038 0.748 4279918021
-0.01778571 -0.1999114 0.747 4286024906
-0.01778571 -0.1984886 0.747 4292137680
-0.0177381 -0.1965381 0.7450001 4289645277
-0.0177381 -0.1951191 0.7450001 4287143876
-0.0177381 -0.1937 0.7450001 4287008166
-0.0177381 -0.192281 0.7450001 4286874012
-0.0177381 -0.1908619 0.7450001 4286940307
-0.0177381 -0.1894429 0.7450001 4287072149
-0.0177381 -0.1880238 0.7450001 4286220946
-0.01778571 -0.1871057 0.747 4285363306
-0.01780953 -0.1859314 0.748 4284113219
-0.01785714 -0.185 0.7500001 4282864454
-0.01785714 -0.1835714 0.7500001 4281617992
-0.01785714 -0.1821429 0.7500001 4280435023
-0.01785714 -0.1807143 0.7500001 4280234069
-0.01785714 -0.1792857 0.7500001 4280102488
-0.01790476 -0.1783314 0.752 4280561243
-0.01790476 -0.176899 0.752 4281085527
-0.01790476 -0.1754667 0.752 4281412948
-0.01790476 -0.1740343 0.752 4281809490
-0.01792857 -0.1728314 0.753 4282336335
-0.01792857 -0.1713971 0.753 4282861648
-0.01797619 -0.1704143 0.7550001 4282403409
-0.01797619 -0.1689762 0.7550001 4282008657
-0.018 -0.16776 0.756 4281615184
-0.018 -0.16632 0.756 4281284689
-0.01804762 -0.1653162 0.758 4280692049
-0.01809524 -0.1643048 0.7600001 4280102227
-0.01809524 -0.1628572 0.7600001 4279639381
-0.01809524 -0.1614095 0.7600001 4279246679
-0.01811905 -0.1601724 0.761 4279050328
-0.01816667 -0.15914 0.763 4278854998
-0.01816667 -0.1576867 0.763 4279379283
-0.01816667 -0.1562333 0.763 4279968586
-0.01821429 -0.1551857 0.765 4279836225
-0.01821429 -0.1537286 0.765 4279775549
-0.01821429 -0.1522714 0.765 4280889913
-0.01826191 -0.1512086 0.767 4282073644
-0.01828571 -0.1499429 0.768 4283061024
-0.01828571 -0.14848 0.768 4284109328
-0.01828571 -0.1470171 0.768 4281815553
-0.01833333 -0.1459333 0.77 4279575313
-0.01833333 -0.1444667 0.77 4280422945
-0.01833333 -0.143 0.77 4281284400
-0.01833333 -0.1415333 0.77 4280431936
-0.01838095 -0.1404305 0.772 4279574331
-0.01845238 -0.1395 0.775 4279505207
-0.01845238 -0.1380238 0.775 4279446860
-0.01845238 -0.1365476 0.775 4279712609
-0.0185 -0.13542 0.777 4280041062
-0.01854762 -0.1342848 0.779 4279975788
-0.01854762 -0.132801 0.779 4279975791
-0.01854762 -0.1313172 0.779 4280238450
-0.01857143 -0.13 0.78 4280565873
-0.01857143 -0.1285143 0.78 4280237936
-0.01861905 -0.1273543 0.7820001 4279908975
-0.01861905 -0.1258648 0.7820001 4279842926
-0.01861905 -0.1243752 0.7820001 4279847280
-0.01866667 -0.1232 0.784 4282078066
-0.01866667 -0.1217067 0.784 4284308343
-0.01866667 -0.1202133 0.784 4283719804
-0.01871428 -0.1190229 0.786 4283192438
-0.01871428 -0.1175257 0.786 4281483888
-0.0187619 -0.1163238 0.788 4279843955
-0.01878572 -0.1149686 0.789 4280105334
-0.01883333 -0.1137533 0.791 4280433004
-0.01878572 -0.1119629 0.789 4281088099
-0.01878572 -0.11046 0.789 4281813355
-0.01883333 -0.1092333 0.791 4282538355
-0.01888095 -0.1079991 0.793 4283259515
-0.01888095 -0.1064886 0.793 4282343810
-0.01892857 -0.1052429 0.795 4281483900
-0.01897619 -0.1039895 0.7970001 4280563317
-0.01897619 -0.1024714 0.7970001 4279711343
-0.01897619 -0.1009533 0.7970001 4279317352
-0.019 -0.09956 0.798 4278988645
-0.01904762 -0.09828572 0.8 4279251298
-0.01909524 -0.09700381 0.802 4279514212
-0.01909524 -0.0954762 0.802 4279383911
-0.01914286 -0.09418286 0.804 4279318115
-0.01914286 -0.09265143 0.804 4279054943
-0.01919048 -0.09134667 0.8060001 4278857048
-0.01919048 -0.08981144 0.8060001 4279184720
-0.0192381 -0.08849524 0.808 4279578968
-0.0192381 -0.08695619 0.808 4279645791
-0.0192381 -0.08541714 0.808 4279776860
-0.01928572 -0.08408573 0.8100001 4280366681
-0.01933333 -0.08274667 0.812 4281022789
-0.01933333 -0.0812 0.812 4281680177
-0.01933333 -0.07965334 0.812 4282401314
-0.01938095 -0.07829905 0.814 4282270226
-0.01940476 -0.07684286 0.8150001 4282138382
-0.01945238 -0.07547524 0.817 4282204170
-0.0195 -0.07410001 0.8190001 4282269706
-0.01954762 -0.07271715 0.821 4281285387
-0.01954762 -0.07115334 0.821 4280364555
-0.01954762 -0.06958953 0.821 4281868811
-0.01954762 -0.06802572 0.821 4283448850
-0.01959524 -0.06662381 0.823 4283058714
-0.01959524 -0.06505619 0.823 4282728979
-0.01959524 -0.06348857 0.823 4283056396
-0.01959524 -0.06192095 0.823 4283385871
-0.01959524 -0.06035333 0.823 4282993681
-0.01959524 -0.05878571 0.823 4282599694
-0.01964286 -0.05735714 0.825 4282795787
-0.01969048 -0.05592095 0.827 4282992398
-0.01969048 -0.05434571 0.827 4283058449
-0.0197381 -0.0528981 0.8290001 4283123981
-0.01978572 -0.05144286 0.831 4283058952
-0.01978572 -0.04986 0.831 4283058953
-0.01983333 -0.04839334 0.8330001 4282796042
-0.01988095 -0.04691905 0.835 4282599181
-0.01992857 -0.04543714 0.837 4282401040
-0.01992857 -0.04384286 0.837 4282269709
-0.01997619 -0.04234952 0.839 4282006282
-0.02002381 -0.04084857 0.841 4281808647
-0.02007143 -0.03934 0.8430001 4281348869
-0.02007143 -0.03773429 0.8430001 4280887557
-0.02011905 -0.03621429 0.845 4280623622
-0.02011905 -0.03460477 0.845 4280360708
-0.02019048 -0.03311238 0.848 4279703811
-0.02019048 -0.03149714 0.848 4279112460
-0.01691048 -0.2418933 0.772 4292862465
-0.01682286 -0.2391771 0.768 4292533984
-0.01680095 -0.2374048 0.767 4292269764
-0.01675714 -0.2353286 0.765 4292006844
-0.01675714 -0.2338714 0.765 4292072633
-0.01671333 -0.2318067 0.763 4292139706
-0.01671333 -0.2303533 0.763 4291285948
-0.01666952 -0.2283 0.761 4290430656
-0.01666952 -0.2268505 0.761 4289702346
-0.01664762 -0.2251048 0.7600001 4288916696
-0.01660381 -0.2230686 0.758 4289315304
-0.01660381 -0.2216248 0.758 4289711858
-0.01656 -0.2196 0.756 4288070652
-0.01649429 -0.2172943 0.753 4286491388
-0.0165381 -0.2164333 0.7550001 4285438971
-0.01649429 -0.2144257 0.753 4284453871
-0.01649429 -0.2129914 0.753 4284713701
-0.01649429 -0.2115571 0.753 4284976104
-0.01647238 -0.2098438 0.752 4284386283
-0.01642857 -0.2078572 0.7500001 4283731177
-0.01642857 -0.2064286 0.7500001 4283469032
-0.01638476 -0.2044533 0.748 4283200720
-0.01638476 -0.2030286 0.748 4282801848
-0.01638476 -0.2016038 0.748 4282404804
-0.01636286 -0.1999114 0.747 4287276752
-0.01636286 -0.1984886 0.747 4292141269
-0.01631905 -0.1965381 0.7450001 4289509589
-0.01631905 -0.1951191 0.7450001 4286879678
-0.01631905 -0.1937 0.7450001 4286810271
-0.01631905 -0.192281 0.7450001 4286808480
-0.01631905 -0.1908619 0.7450001 4286874775
-0.01636286 -0.1899514 0.747 4287007631
-0.01636286 -0.1885286 0.747 4285890959
-0.01636286 -0.1871057 0.747 4284772694
-0.01638476 -0.1859314 0.748 4283981089
-0.01642857 -0.185 0.7500001 4283193133
-0.01647238 -0.184061 0.752 4282405177
-0.01647238 -0.1826286 0.752 4281684038
-0.01647238 -0.1811962 0.752 4281352019
-0.01647238 -0.1797638 0.752 4281086295
-0.01647238 -0.1783314 0.752 4280955996
-0.01647238 -0.176899 0.752 4280891484
-0.01649429 -0.1757 0.753 4281348701
-0.01649429 -0.1742657 0.753 4281806683
-0.01649429 -0.1728314 0.753 4282072154
-0.01649429 -0.1713971 0.753 4282402908
-0.01656 -0.17064 0.756 4282006367
-0.01656 -0.1692 0.756 4281674334
-0.01660381 -0.1682038 0.758 4281018974
-0.01660381 -0.16676 0.758 4280429145
-0.01664762 -0.1657524 0.7600001 4280429908
-0.01664762 -0.1643048 0.7600001 4280495703
-0.01666952 -0.1630714 0.761 4280298842
-0.01671333 -0.1620467 0.763 4280167767
-0.01671333 -0.1605933 0.763 4280102228
-0.01671333 -0.15914 0.763 4280102224
-0.01675714 -0.1581 0.765 4280560973
-0.01675714 -0.1566429 0.765 4281021244
-0.01675714 -0.1551857 0.765 4281285931
-0.01680095 -0.1541305 0.767 4281552933
-0.01680095 -0.1526695 0.767 4282077216
-0.01682286 -0.1514057 0.768 4282667542
-0.01682286 -0.1499429 0.768 4282929677
-0.01682286 -0.14848 0.768 4283256839
-0.01686667 -0.1474 0.77 4281745153
-0.01686667 -0.1459333 0.77 4280226591
-0.01686667 -0.1444667 0.77 4280820286
-0.01691048 -0.1433714 0.772 4281482825
-0.01691048 -0.141901 0.772 4280562516
-0.01702 -0.14134 0.777 4279634495
-0.01702 -0.13986 0.777 4279573802
-0.01702 -0.13838 0.777 4279579974
-0.01706381 -0.1372524 0.779 4279712867
-0.01706381 -0.1357686 0.779 4279910759
-0.01706381 -0.1342848 0.779 4279844972
-0.01708571 -0.1329714 0.78 4279779440
-0.01708571 -0.1314857 0.78 4279975796
-0.01712953 -0.1303333 0.7820001 4280172147
-0.01717333 -0.1291733 0.784 4279910258
-0.01717333 -0.12768 0.784 4279580780
-0.01712953 -0.1258648 0.7820001 4280760423
-0.01717333 -0.1246933 0.784 4281882472
-0.01721714 -0.1235143 0.786 4282997866
-0.01726095 -0.1223276 0.788 4284114552
-0.01721714 -0.12052 0.786 4283917191
-0.01726095 -0.1193257 0.788 4283723125
-0.01726095 -0.1178248 0.788 4281684835
-0.01732667 -0.1167667 0.791 4279712108
-0.01732667 -0.11526 0.791 4279908725
-0.01732667 -0.1137533 0.791 4280105577
-0.01737048 -0.1125305 0.793 4280564317
-0.01741428 -0.1113 0.795 4280958312
-0.01741428 -0.1097857 0.795 4281089140
-0.01741428 -0.1082714 0.795 4281154679
-0.0174581 -0.1070257 0.7970001 4280958075
-0.0174581 -0.1055076 0.7970001 4280696182
-0.01748 -0.10412 0.798 4280170098
-0.01748 -0.1026 0.798 4279711851
-0.01748 -0.10108 0.798 4279382372
-0.01748 -0.09956 0.798 4279119460
-0.01756762 -0.09853143 0.802 4279251300
-0.01761143 -0.09724572 0.804 4279383141
-0.01761143 -0.09571429 0.804 4279318119
-0.01765524 -0.09441715 0.8060001 4279318117
-0.01765524 -0.09288191 0.8060001 4279185508
-0.01765524 -0.09134667 0.8060001 4279053922
-0.01769905 -0.09003429 0.808 4279316577
-0.01769905 -0.08849524 0.808 4279579490
-0.01774286 -0.08717144 0.8100001 4279710820
-0.01778667 -0.08584 0.812 4279841885
-0.01778667 -0.08429334 0.812 4280628567
-0.01783048 -0.08295047 0.814 4281416506
-0.01783048 -0.0814 0.814 4282139678
-0.01783048 -0.07984953 0.814 4282862102
-0.01785238 -0.07839524 0.8150001 4282597646
-0.01789619 -0.07703143 0.817 4282400013
-0.01794 -0.07566001 0.8190001 4282531852
-0.01798381 -0.07428095 0.821 4282729231
-0.01798381 -0.07271715 0.821 4282006802
-0.01802762 -0.07132667 0.823 4281219091
-0.01802762 -0.06975905 0.823 4282071573
-0.01802762 -0.06819142 0.823 4282991907
-0.01802762 -0.06662381 0.823 4282794801
-0.01807143 -0.06521429 0.825 4282662944
-0.01802762 -0.06348857 0.823 4282925839
-0.01807143 -0.06207143 0.825 4283254803
-0.01807143 -0.0605 0.825 4282928152
-0.01811524 -0.05907143 0.827 4282665231
-0.01815905 -0.05763524 0.8290001 4282861575
-0.01815905 -0.05605619 0.8290001 4283058196
-0.01815905 -0.05447715 0.8290001 4283124002
-0.01820286 -0.05302572 0.831 4283189525
-0.01820286 -0.05144286 0.831 4283058697
-0.01824667 -0.04998 0.8330001 4282928136
-0.01824667 -0.04839334 0.8330001 4282730247
-0.01833428 -0.04703143 0.837 4282533643
-0.0183781 -0.04554572 0.839 4282335247
-0.0183781 -0.04394762 0.839 4282204173
-0.01842191 -0.04245048 0.841 4281874956
-0.01846572 -0.04094572 0.8430001 4281546505
-0.01850953 -0.03943333 0.845 4281150983
-0.01850953 -0.03782381 0.845 4280755205
-0.01857524 -0.03634286 0.848 4280426500
-0.01857524 -0.03472762 0.848 4280164098
-0.01857524 -0.03311238 0.848 4279965441
-0.01861905 -0.03157143 0.85 4279833102
-0.01544 -0.2418933 0.772 4293452674
-0.01536 -0.2391771 0.768 4293320875
-0.01534 -0.2374048 0.767 4292795869
-0.0153 -0.2353286 0.765 4292270799
-0.0153 -0.2338714 0.765 4292269515
-0.01526 -0.2318067 0.763 4292334783
-0.01526 -0.2303533 0.763 4290958266
-0.01526 -0.2289 0.763 4289639875
-0.01522 -0.2268505 0.761 4289696458
-0.01522 -0.225401 0.761 4289836514
-0.0152 -0.2236571 0.7600001 4289776113
-0.01516 -0.2216248 0.758 4289711351
-0.01516 -0.220181 0.758 4288004863
-0.01512 -0.21816 0.756 4286295548
-0.01512 -0.21672 0.756 4285308923
-0.0151 -0.2149953 0.7550001 4284322032
-0.0151 -0.2135572 0.7550001 4284058342
-0.01506 -0.2115571 0.753 4283862248
-0.01506 -0.2101229 0.753 4283862761
-0.015 -0.2078572 0.7500001 4283927784
-0.015 -0.2064286 0.7500001 4283403495
-0.01496 -0.2044533 0.748 4282871762
-0.01496 -0.2030286 0.748 4283913405
-0.01494 -0.2013343 0.747 4284971725
-0.01494 -0.1999114 0.747 4288598234
-0.01494 -0.1984886 0.747 4292202976
-0.0149 -0.1965381 0.7450001 4289439197
-0.0149 -0.1951191 0.7450001 4286680512
-0.0149 -0.1937 0.7450001 4286676638
-0.0149 -0.192281 0.7450001 4286743190
-0.01494 -0.1913743 0.747 4286809236
-0.01496 -0.1902057 0.748 4286940814
-0.01494 -0.1885286 0.747 4285562250
-0.01496 -0.1873562 0.748 4284179535
-0.015 -0.1864286 0.7500001 4283847187
-0.01504 -0.1854933 0.752 4283519512
-0.01504 -0.184061 0.752 4283257629
-0.01504 -0.1826286 0.752 4282994728
-0.01504 -0.1811962 0.752 4282535475
-0.01504 -0.1797638 0.752 4282073917
-0.01504 -0.1783314 0.752 4281416264
-0.01506 -0.1771343 0.753 4280760655
-0.01506 -0.1757 0.753 4281284438
-0.01506 -0.1742657 0.753 4281808468
-0.0151 -0.1732905 0.7550001 4281874002
-0.0151 -0.1718524 0.7550001 4281939541
-0.01512 -0.17064 0.756 4281610584
-0.01516 -0.1696476 0.758 4281347160
-0.01516 -0.1682038 0.758 4280428887
-0.0152 -0.1672 0.7600001 4279578190
-0.01522 -0.1659705 0.761 4280235334
-0.01522 -0.164521 0.761 4280890182
-0.01526 -0.1635 0.763 4280955718
-0.01526 -0.1620467 0.763 4281086272
-0.0153 -0.1610143 0.765 4281216314
-0.0153 -0.1595571 0.765 4281412917
-0.0153 -0.1581 0.765 4281740593
-0.01534 -0.1570524 0.767 4282138662
-0.01534 -0.1555914 0.767 4282732572
-0.01534 -0.1541305 0.767 4283388446
-0.01536 -0.1528686 0.768 4283323680
-0.01536 -0.1514057 0.768 4283258133
-0.01536 -0.1499429 0.768 4282799625
-0.0154 -0.1488667 0.77 4282402574
-0.0154 -0.1474 0.77 4281612307
-0.01544 -0.1463124 0.772 4280888357
-0.01544 -0.1448419 0.772 4281281591
-0.01546 -0.1435572 0.7730001 4281741374
-0.01554 -0.14282 0.777 4280759110
-0.01558 -0.1417038 0.779 4279773251
-0.01558 -0.14022 0.779 4279707457
-0.01558 -0.1387362 0.779 4279711317
-0.0156 -0.1374286 0.78 4279779177
-0.0156 -0.1359429 0.78 4279845230
-0.0156 -0.1344572 0.78 4279713908
-0.0156 -0.1329714 0.78 4279648373
-0.01564 -0.1318229 0.7820001 4279713398
-0.01568 -0.1306667 0.784 4279844468
-0.01568 -0.1291733 0.784 4279582579
-0.01568 -0.12768 0.784 4279318387
-0.01568 -0.1261867 0.784 4281611379
-0.01572 -0.1250114 0.786 4283979631
-0.01576 -0.1238286 0.788 4283916651
-0.01578 -0.1224829 0.789 4283916915
-0.01578 -0.12098 0.789 4284048251
-0.01578 -0.1194771 0.789 4284244850
-0.01578 -0.1179743 0.789 4281951337
-0.01582 -0.1167667 0.791 4279646319
-0.01586 -0.1155514 0.793 4279711349
-0.01586 -0.114041 0.793 4279843436
-0.01586 -0.1125305 0.793 4279975012
-0.0159 -0.1113 0.795 4280171626
-0.01594 -0.1100619 0.7970001 4279646065
-0.01594 -0.1085438 0.7970001 4279121779
-0.01596 -0.10716 0.798 4279514997
-0.01596 -0.10564 0.798 4279973745
-0.01596 -0.10412 0.798 4279841901
-0.01596 -0.1026 0.798 4279710819
-0.016 -0.1013333 0.8 4279512921
-0.016 -0.09980953 0.8 4279316830
-0.01608 -0.09877715 0.804 4279251812
-0.01608 -0.09724572 0.804 4279252329
-0.01612 -0.09595238 0.8060001 4279252590
-0.01616 -0.09465143 0.808 4279316834
-0.01616 -0.09311239 0.808 4279315030
-0.01616 -0.09157334 0.808 4279316059
-0.01616 -0.09003429 0.808 4279448416
-0.0162 -0.08871429 0.8100001 4279579749
-0.01628 -0.08760191 0.814 4279711082
-0.01628 -0.08605143 0.814 4279907166
-0.01628 -0.08450095 0.814 4280890195
-0.01628 -0.08295047 0.814 4281876790
-0.01628 -0.0814 0.814 4282599961
-0.0163 -0.07994763 0.8150001 4283319828
-0.01634 -0.07858762 0.817 4282990607
-0.01634 -0.07703143 0.817 4282662934
-0.01638 -0.07566001 0.8190001 4282925340
-0.01642 -0.07428095 0.821 4283253015
-0.01646 -0.07289428 0.823 4282663187
-0.01646 -0.07132667 0.823 4282138129
-0.0165 -0.06992857 0.825 4282334991
-0.01646 -0.06819142 0.823 4282531606
-0.0165 -0.06678572 0.825 4282597149
-0.0165 -0.06521429 0.825 4282663188
-0.01654 -0.06379714 0.827 4282860810
-0.01654 -0.0622219 0.827 4283123725
-0.01654 -0.06064667 0.827 4282928144
-0.01658 -0.05921429 0.8290001 4282730506
-0.01662 -0.05777429 0.831 4282927108
-0.01662 -0.05619143 0.831 4283123725
-0.01662 -0.05460857 0.831 4283189526
-0.01662 -0.05302572 0.831 4283255054
-0.01666 -0.05156667 0.8330001 4283058439
-0.0167 -0.0501 0.835 4282862599
-0.0167 -0.04850952 0.835 4282664712
-0.01674 -0.04703143 0.837 4282467339
-0.01678 -0.04554572 0.839 4282269710
-0.01682 -0.04405238 0.841 4282138635
-0.01686 -0.04255143 0.8430001 4281743881
-0.01686 -0.04094572 0.8430001 4281349641
-0.0169 -0.03943333 0.845 4280953608
-0.0169 -0.03782381 0.845 4280624646
-0.01696 -0.03634286 0.848 4280295172
-0.01696 -0.03472762 0.848 4279966214
-0.017 -0.03319048 0.85 4280292615
-0.01704 -0.03164572 0.8520001 4280621584
-0.01396952 -0.2418933 0.772 4289300226
-0.01387905 -0.2388657 0.767 4292076151
-0.01387905 -0.2374048 0.767 4292600051
-0.01384286 -0.2353286 0.765 4293127397
-0.01384286 -0.2338714 0.765 4292795862
-0.01380667 -0.2318067 0.763 4292530630
-0.01380667 -0.2303533 0.763 4290760114
-0.01380667 -0.2289 0.763 4288981186
-0.01377048 -0.2268505 0.761 4289632460
-0.01377048 -0.225401 0.761 4290365416
-0.01375238 -0.2236571 0.7600001 4289842944
-0.01371619 -0.2216248 0.758 4289319165
-0.01371619 -0.220181 0.758 4287479036
-0.01368 -0.21816 0.756 4285640955
-0.01368 -0.21672 0.756 4284979196
-0.01368 -0.21528 0.756 4284255218
-0.01366191 -0.2135572 0.7550001 4284124392
-0.01366191 -0.2121191 0.7550001 4283928040
-0.01362571 -0.2101229 0.753 4283862248
-0.01360762 -0.2084114 0.752 4283796455
-0.01357143 -0.2064286 0.7500001 4282681063
-0.01357143 -0.205 0.7500001 4281560020
-0.01357143 -0.2035714 0.7500001 4284375234
-0.01353524 -0.2016038 0.748 4287139544
-0.01353524 -0.2001791 0.748 4289188072
-0.01353524 -0.1987543 0.748 4291154663
-0.01351714 -0.1970657 0.747 4288846054
-0.01351714 -0.1956429 0.747 4286480320
-0.01351714 -0.19422 0.747 4286611869
-0.01351714 -0.1927972 0.747 4286743704
-0.01353524 -0.1916305 0.748 4286809743
-0.01353524 -0.1902057 0.748 4286810256
-0.01353524 -0.1887809 0.748 4285297293
-0.01353524 -0.1873562 0.748 4283848009
-0.01360762 -0.1869257 0.752 4283650565
-0.01360762 -0.1854933 0.752 4283450371
-0.01360762 -0.184061 0.752 4283518977
-0.01360762 -0.1826286 0.752 4283584778
-0.01362571 -0.1814371 0.753 4283126291
-0.01362571 -0.1800029 0.753 4282733860
-0.01362571 -0.1785686 0.753 4282207029
-0.01366191 -0.1776048 0.7550001 4281746498
-0.01366191 -0.1761667 0.7550001 4281942608
-0.01366191 -0.1747286 0.7550001 4282073165
-0.01368 -0.17352 0.756 4282137162
-0.01368 -0.17208 0.756 4282136398
-0.01371619 -0.1710914 0.758 4281807698
-0.01371619 -0.1696476 0.758 4281544273
-0.01375238 -0.1686476 0.7600001 4281085521
-0.01377048 -0.16742 0.761 4280693060
-0.01380667 -0.1664067 0.763 4281152824
-0.01380667 -0.1649533 0.763 4281612085
-0.01384286 -0.1639286 0.765 4281678643
-0.01384286 -0.1624714 0.765 4281744681
-0.01384286 -0.1610143 0.765 4281942816
-0.01387905 -0.1599743 0.767 4282142746
-0.01387905 -0.1585133 0.767 4282601493
-0.01387905 -0.1570524 0.767 4283060753
-0.01389714 -0.1557943 0.768 4283192078
-0.01389714 -0.1543314 0.768 4283389207
-0.01393333 -0.1532667 0.77 4283323681
-0.01389714 -0.1514057 0.768 4283258387
-0.01393333 -0.1503333 0.77 4282668550
-0.01393333 -0.1488667 0.77 4282072597
-0.01393333 -0.1474 0.77 4281479973
-0.01396952 -0.1463124 0.772 4280889131
-0.01398762 -0.1450295 0.7730001 4281084465
-0.01398762 -0.1435572 0.7730001 4281215284
-0.01409619 -0.1431876 0.779 4280299320
-0.01409619 -0.1417038 0.779 4279446856
-0.01411429 -0.1404 0.78 4279578713
-0.01415048 -0.1392705 0.7820001 4279711844
-0.01415048 -0.137781 0.7820001 4279779184
-0.01418667 -0.13664 0.784 4279910774
-0.01415048 -0.1348019 0.7820001 4279714172
-0.01418667 -0.1336533 0.784 4279583098
-0.01418667 -0.13216 0.784 4279648120
-0.01418667 -0.1306667 0.784 4279779190
-0.01422286 -0.1295028 0.786 4279647348
-0.01422286 -0.1280057 0.786 4279514489
-0.01422286 -0.1265086 0.786 4281481599
-0.01425905 -0.1253295 0.788 4283520886
-0.01427714 -0.1239857 0.789 4283719789
-0.01431333 -0.1227933 0.791 4283916142
-0.01431333 -0.1212867 0.791 4282932335
-0.01431333 -0.11978 0.791 4282012783
-0.01431333 -0.1182733 0.791 4280830576
-0.01434952 -0.1170619 0.793 4279711858
-0.01434952 -0.1155514 0.793 4279777653
-0.01434952 -0.114041 0.793 4279843696
-0.01438571 -0.1128143 0.795 4279909484
-0.01442191 -0.11158 0.7970001 4280041069
-0.01444 -0.1102 0.798 4279647854
-0.01444 -0.10868 0.798 4279320174
-0.01447619 -0.1074286 0.8 4279514991
-0.01447619 -0.1059048 0.8 4279777131
-0.01451238 -0.1046419 0.802 4279645544
-0.01451238 -0.1031143 0.802 4279514459
-0.01451238 -0.1015867 0.802 4279514447
-0.01451238 -0.100059 0.802 4279448921
-0.01458476 -0.09902287 0.8060001 4279383396
-0.01458476 -0.09748763 0.8060001 4279318380
-0.01458476 -0.09595238 0.8060001 4279186293
-0.01462095 -0.09465143 0.808 4279053919
-0.01462095 -0.09311239 0.808 4279249993
-0.01465714 -0.0918 0.8100001 4279447124
-0.01465714 -0.09025715 0.8100001 4279579488
-0.01469333 -0.08893333 0.812 4279711080
-0.01472952 -0.08760191 0.814 4280038000
-0.01474762 -0.08615714 0.8150001 4280364640
-0.01474762 -0.08460477 0.8150001 4281220432
-0.01474762 -0.08305239 0.8150001 4282142258
-0.01474762 -0.0815 0.8150001 4282534421
-0.01474762 -0.07994763 0.8150001 4282991891
-0.01482 -0.07878001 0.8190001 4282860817
-0.01482 -0.07722001 0.8190001 4282729759
-0.01485619 -0.07584476 0.821 4282795053
-0.01489238 -0.0744619 0.823 4282926112
-0.01489238 -0.07289428 0.823 4282531860
-0.01489238 -0.07132667 0.823 4282203150
-0.01492857 -0.06992857 0.825 4282334729
-0.01492857 -0.06835715 0.825 4282465545
-0.01492857 -0.06678572 0.825 4282597642
-0.01496476 -0.06537238 0.827 4282663688
-0.01496476 -0.06379714 0.827 4282795526
-0.01500095 -0.06237239 0.8290001 4282927111
-0.01503714 -0.06094 0.831 4282730504
-0.01507333 -0.05950001 0.8330001 4282599172
-0.01510952 -0.05805238 0.835 4282796033
-0.01510952 -0.05646191 0.835 4283058693
-0.01514571 -0.05500286 0.837 4283058954
-0.01510952 -0.05328095 0.835 4283124744
-0.01510952 -0.05169048 0.835 4282993670
-0.01514571 -0.05022 0.837 4282862599
-0.01514571 -0.04862571 0.837 4282599177
-0.01518191 -0.04714381 0.839 4282401803
-0.01521809 -0.04565429 0.841 4282204173
-0.01525429 -0.04415714 0.8430001 4282007562
-0.01525429 -0.04255143 0.8430001 4281678087
-0.01529048 -0.04104286 0.845 4281284104
-0.01529048 -0.03943333 0.845 4280953866
-0.01534476 -0.0379581 0.848 4280691463
-0.01534476 -0.03634286 0.848 4280098565
-0.01538095 -0.03480952 0.85 4279506185
-0.01541714 -0.03326857 0.8520001 4280161550
-0.0124181 -0.2388657 0.767 4290803517
-0.0124181 -0.2374048 0.767 4292397175
-0.01238571 -0.2353286 0.765 4294038445
-0.01238571 -0.2338714 0.765 4293387749
-0.01235333 -0.2318067 0.763 4292730330
-0.01238571 -0.2309572 0.765 4290497993
-0.01235333 -0.2289 0.763 4288324552
-0.01235333 -0.2274467 0.763 4289631947
-0.01232095 -0.225401 0.761 4290956004
-0.01230476 -0.2236571 0.7600001 4289979389
-0.01227238 -0.2216248 0.758 4288990720
-0.01227238 -0.220181 0.758 4287017728
-0.01224 -0.21816 0.756 4285047291
-0.01224 -0.21672 0.756 4284647673
-0.01224 -0.21528 0.756 4284255218
-0.01222381 -0.2135572 0.7550001 4284124907
-0.01222381 -0.2121191 0.7550001 4284059112
-0.01219143 -0.2101229 0.753 4283861990
-0.01217524 -0.2084114 0.752 4283730917
-0.01217524 -0.2069791 0.752 4282025700
-0.01214286 -0.205 0.7500001 4280315093
-0.01214286 -0.2035714 0.7500001 4284833478
-0.01211048 -0.2016038 0.748 4289374421
-0.01211048 -0.2001791 0.748 4289783021
-0.01211048 -0.1987543 0.748 4290165466
-0.01211048 -0.1973295 0.748 4288248779
-0.01211048 -0.1959048 0.748 4286349491
-0.01211048 -0.19448 0.748 4286547607
-0.01211048 -0.1930552 0.748 4286810007
-0.01211048 -0.1916305 0.748 4286745238
-0.01214286 -0.1907143 0.7500001 4286743176
-0.01211048 -0.1887809 0.748 4285098617
-0.01214286 -0.1878572 0.7500001 4283520066
-0.01217524 -0.1869257 0.752 4283454220
-0.01217524 -0.1854933 0.752 4283453451
-0.01219143 -0.1843057 0.753 4283781131
-0.01219143 -0.1828714 0.753 4284175119
-0.01219143 -0.1814371 0.753 4283782931
-0.01222381 -0.180481 0.7550001 4283389723
-0.01222381 -0.1790429 0.7550001 4283062819
-0.01224 -0.17784 0.756 4282798632
-0.01224 -0.1764 0.756 4282601262
-0.01224 -0.17496 0.756 4282402602
-0.01227238 -0.1739791 0.758 4282399781
-0.01227238 -0.1725352 0.758 4282399538
-0.01227238 -0.1710914 0.758 4282071360
-0.01230476 -0.1700952 0.7600001 4281743163
-0.01232095 -0.1688695 0.761 4281807158
-0.01235333 -0.16786 0.763 4281874222
-0.01235333 -0.1664067 0.763 4282137126
-0.01238571 -0.1653857 0.765 4282401825
-0.0124181 -0.1643571 0.767 4282404125
-0.0124181 -0.1628962 0.767 4282404123
-0.0124181 -0.1614352 0.767 4282667290
-0.01243429 -0.1601829 0.768 4282929434
-0.01243429 -0.15872 0.768 4283455259
-0.01243429 -0.1572571 0.768 4283978258
-0.01246667 -0.1562 0.77 4283716874
-0.01246667 -0.1547333 0.77 4283454735
-0.01246667 -0.1532667 0.77 4283323157
-0.01249905 -0.1521943 0.772 4283258380
-0.01249905 -0.1507238 0.772 4282537476
-0.01249905 -0.1492533 0.772 4281809424
-0.01251524 -0.1479743 0.7730001 4281346331
-0.01251524 -0.1465019 0.7730001 4280954144
-0.01254762 -0.1454048 0.775 4280820260
-0.01258 -0.1443 0.777 4280757037
-0.01262857 -0.1433714 0.78 4279906614
-0.01262857 -0.1418857 0.78 4279119946
-0.01266095 -0.14076 0.7820001 4279449182
-0.01266095 -0.1392705 0.7820001 4279778150
-0.01269333 -0.1381333 0.784 4279844975
-0.01269333 -0.13664 0.784 4279976304
