# .PCD v0.7 - Point Cloud Data file format
VERSION 0.7
FIELDS x y z
SIZE 4 4 4
TYPE F F F
COUNT 1 1 1
WIDTH 1867
HEIGHT 1
VIEWPOINT 0 0 0 1 0 0 0
POINTS 1867
DATA ascii
-10.1681 33.6992 39.2021
-10.161 -24.5268 8.52219
-10.1581 -49.2169 88.0535
-10.1552 5.73439 41.2199
-10.1401 -35.8274 65.8885
-10.1281 36.4312 35.666
-10.1087 -30.7981 1.6808
-10.1055 54.4509 45.7468
-10.0894 55.5753 1.0207
-10.086 41.6527 70.5527
-10.0803 -37.6689 67.6678
-10.0637 -22.2045 6.68086
-10.056 58.8808 13.1715
-10.01781 62.95807 6.580936
-10.0508 58.3038 16.9398
-10.0477 -36.8728 56.2188
-10.0343 34.7996 70.8694
-9.963324 54.73915 3.276062
-10.0269 13.5746 45.3467
-10.0192 -22.6752 8.61301
-10.0148 -27.0496 6.57276
-10.0035 53.7053 37.3397
-10.0024 -30.406 0.896302
-9.98811 -27.35 39.7126
-9.97744 61.6271 1.61616
-9.945956 56.87794 1.415002
-9.97257 54.0849 0.667865
-9.959391 55.31979 6.04078
-9.9672 52.8599 1.82586
-9.95891 -51.7631 90.5156
-9.95721 -38.1739 72.5863
-9.95694 -29.2324 5.32112
-9.94136 58.188 8.05744
-9.94077 -23.1404 36.8319
-9.93965 24.8205 48.8419
-9.670944 56.57871 26.49928
-9.92039 -40.3675 69.2588
-9.9173 -21.891 35.6067
-9.91185 -49.6529 82.8046
-9.91063 15.8347 46.8173
-9.89007 -22.6131 5.04787
-9.88991 53.4534 41.5257
-9.88357 -30.5291 4.38258
-9.87632 -23.3018 1.51581
-9.87259 -32.5865 74.1768
-9.85389 -13.3847 33.3169
-9.85309 -44.5437 76.3168
-9.85065 53.2688 1.18188
-9.736773 62.10923 2.729166
-9.83919 -37.9457 49.0089
-9.82968 56.9291 6.97064
-9.331828 -55.93259 93.10175
-9.735916 55.71609 1.454444
-9.80871 61.9546 14.5331
-9.80725 54.7816 49.0121
-9.700607 54.78943 1.901285
-9.77725 -49.7775 83.2272
-9.697439 -23.02367 2.973014
-9.76149 -24.5174 0.555895
-9.76116 59.2151 9.88892
-9.75905 -15.6119 28.3173
-9.75604 -50.5417 82.5896
-9.75067 -41.9346 67.5125
-9.362419 -54.42723 89.7763
-9.73775 8.18766 41.265
-9.661598 -25.99615 0.4819272
-9.72678 58.9232 21.988
-9.72028 -18.2135 27.5458
-9.71533 -30.8629 3.25881
-9.69605 18.7471 47.5254
-9.68825 57.1417 21.2921
-9.68215 -38.1861 50.1537
-9.67972 -51.0533 79.0968
-9.6746 -51.0464 76.9308
-9.67386 57.9886 23.7795
-9.66606 -51.52 84.9317
-9.66185 -23.9705 6.71419
-9.64363 45.5798 69.1474
-9.464501 54.78169 1.799161
-9.61998 -26.1861 6.33936
-9.61559 -36.3607 46.2438
-9.60876 56.972 25.4774
-9.58925 59.6347 17.931
-9.58175 -29.3361 0.332965
-9.57584 -48.2186 85.769
-9.129373 -56.0486 92.92867
-9.390846 54.14417 24.06046
-9.55219 -54.4439 92.5182
-9.54865 -18.9949 31.8338
-9.53951 -37.0566 57.7869
-9.52805 -42.7422 66.7431
-9.441353 -11.13434 37.67136
-9.51659 54.3639 3.59468
-9.51488 -49.6763 69.3193
-9.415793 -29.9776 4.303917
-9.49449 -30.6397 1.82794
-9.48977 -34.3539 44.5152
-9.305021 62.33889 9.429925
-9.4783 21.8512 48.4598
-9.46904 60.3697 13.9269
-9.45741 -31.4383 42.43
-9.43953 54.815 53.0367
-9.42027 -50.8423 70.3342
-9.41984 -30.1717 0.930881
-9.36882 55.8038 1.0385
-9.36419 -40.3494 65.2243
-9.35053 56.3763 23.2418
-9.34078 -51.1774 81.058
-9.3353 -24.3442 5.02051
-9.32298 -55.555 93.2407
-9.297005 -28.82897 0.6003091
-9.267715 -30.2979 3.573846
-9.29763 -24.5505 1.45411
-9.043428 -51.50602 85.33308
-8.89845 -55.61013 92.55639
-9.2864 57.5696 7.12816
-9.27933 -38.6608 51.4905
-9.27104 59.0649 8.2886
-9.26519 -43.8161 71.1423
-9.25568 -37.3914 59.5845
-9.24495 60.7674 10.5156
-9.23772 -9.21338 41.9179
-9.22788 54.3741 2.424
-9.112844 -27.12871 4.227693
-9.18521 -43.0597 70.8601
-9.18496 -38.9337 63.4408
-9.17838 61.0205 1.6403
-9.17058 57.3595 1.33526
-9.15717 -36.476 76.3621
-9.14936 -48.5678 68.2942
-9.082259 -24.51594 2.959406
-9.14644 -51.7931 71.389
-9.101828 -26.72723 1.232275
-9.080543 -29.87475 1.364603
-9.1301 -37.9976 61.5608
-9.10907 -8.83359 42.2648
-9.07792 -50.9321 83.4989
-9.066394 28.00937 47.12845
-9.06353 54.1859 57.981
-9.0589 55.9245 6.25107
-9.05695 50.3135 66.194
-9.04646 55.3073 24.9668
-9.04282 -17.475 32.5048
-9.02891 -21.7783 75.2317
-9.02549 -52.7202 87.7173
-9.02549 55.2795 5.54345
-9.02135 24.6669 48.6495
-8.924389 62.11255 6.482969
-9.00364 -14.911 33.4123
-8.908239 -28.57845 2.596477
-8.901382 -28.16263 1.856348
-8.9722 -8.21395 42.3507
-8.95259 -51.4098 84.1419
-8.95063 -44.8549 69.6295
-8.87715 -26.45051 2.729455
-8.92942 60.8108 8.67923
-8.92674 54.1018 29.3103
-8.9265 -9.10962 73.3344
-8.89699 -12.7484 73.9718
-8.88138 11.6329 70.4883
-8.8709 -54.24 89.8597
-8.707294 -55.51433 91.86185
-8.8509 58.3324 7.03038
-8.8492 61.3687 2.53007
-8.84895 53.2827 62.5874
-8.84798 -17.4792 74.6275
-8.82432 -41.4135 74.2188
-8.82189 -44.1192 69.2301
-8.81652 54.4124 3.75244
-8.80799 51.8175 26.2179
-8.743678 61.72576 4.076563
-8.79213 60.16784 1.695956
-8.77385 6.52004 70.102
-8.76336 -39.0746 52.8026
-8.75434 -1.84587 70.5431
-8.75361 57.5709 1.55057
-8.534733 -56.09194 93.54056
-8.74313 -26.4935 76.0676
-8.72898 56.0691 1.07069
-8.659845 -55.04011 93.52252
-8.67802 -44.8783 64.9629
-8.67622 -5.20724 41.3526
-8.67266 55.3751 1.46961
-8.65242 -52.6041 87.8902
-8.63754 54.309 26.6378
-8.63437 52.6926 32.7753
-8.374222 60.72089 5.886141
-8.586019 54.54346 2.552397
-8.6117 -42.9151 74.972
-8.59341 -56.2412 93.2739
-8.58756 12.2371 42.1975
-8.5474 -54.58839 91.10093
-8.57195 -45.7046 68.7519
-8.57073 -46.8541 83.0382
-8.56805 -45.3445 81.5111
-8.400772 -55.90605 92.94246
-8.56415 -5.81193 71.9274
-8.54513 -52.1252 75.0174
-8.49948 -12.9552 37.8674
-8.49075 -51.0447 91.5117
-8.45125 -44.8636 68.2111
-8.44735 2.23236 70.2542
-8.44694 -19.3476 34.3029
-8.44564 48.598 28.5883
-8.43833 53.6621 26.6554
-8.41516 -40.464 78.4058
-8.41443 -47.4386 84.1004
-8.344724 60.22029 2.658036
-8.38517 52.0472 37.3602
-8.37566 -52.9245 72.5956
-8.37005 -44.1777 80.582
-8.36713 16.586 70.6885
-8.35225 -47.1752 83.7095
-8.34933 14.8981 43.4896
-8.31545 -2.36598 39.9832
-8.30836 55.7465 5.48736
-8.28129 58.7891 5.63464
-8.25984 56.5475 6.13159
-8.25423 -51.3832 82.88
-8.216616 60.59608 4.295743
-8.2474 53.6404 45.6022
-8.23935 -42.9397 79.7718
-8.115429 57.07252 2.406978
-8.21741 54.7394 3.84461
-8.20985 54.4483 48.8014
-8.20473 -38.7837 47.6127
-8.102435 55.70343 4.324288
-8.179245 -55.7417 92.15053
-8.17571 52.4419 41.6581
-7.793407 -51.47985 83.80418
-8.044139 56.14965 1.426529
-8.15498 21.8249 46.8234
-8.14182 -39.3699 54.8889
-8.13913 43.6922 32.1179
-8.13279 -42.9897 63.1836
-8.1267 18.2068 44.9724
-8.11719 -52.0116 87.9004
-8.10768 39.4765 36.1137
-8.095 27.9051 70.8197
-8.08842 -53.4051 77.6781
-8.07866 -30.5202 77.6979
-8.07671 -34.2859 43.9153
-8.02772 58.89797 4.070772
-8.06867 36.2485 39.743
-8.04599 31.4463 45.077
-8.04526 33.0864 43.2377
-8.002994 55.038 2.7242
-7.97747 -52.9564 79.4796
-7.96547 -10.7694 40.6816
-7.96528 -48.1628 89.4332
-7.9495 -19.7777 36.4398
-7.932907 55.96166 3.198427
-7.92261 24.719 47.0755
-7.90139 52.6904 29.3332
-7.86165 -36.479 45.3374
-7.85799 -31.1752 41.8595
-7.83702 -41.723 61.4023
-7.83629 -52.1642 85.7427
-7.83336 -52.9859 80.2263
-7.79776 -47.1587 67.5166
-7.78679 -39.8883 57.0749
-7.77535 0.519135 38.9925
-7.77167 -34.3814 79.6179
-7.76387 -39.9634 48.8446
-7.74119 -54.4965 93.1715
-7.71597 -14.7133 36.8694
-7.71339 54.4024 53.5275
-7.71047 -40.7425 59.2865
-7.601998 -55.92555 92.27909
-7.68535 -46.3567 66.9897
-7.67681 -17.3842 35.4455
-7.66072 26.1601 70.8348
-7.64905 -10.6905 40.8872
-7.63731 -54.0559 73.8021
-7.60854 51.0318 29.0421
-7.59732 -51.7016 84.3998
-7.58291 -9.93332 41.2994
-7.567822 -56.35744 92.51846
-7.55051 -53.9857 90.162
-7.48808 -47.1292 63.5835
-7.47625 -26.8199 39.5027
-7.43883 -54.4807 76.0008
-7.42712 -52.0915 85.8643
-7.42566 -55.4197 77.8944
-7.306864 -54.79408 90.116
-7.39177 3.1587 38.5233
-7.36787 22.1677 70.8826
-7.36055 -52.9947 81.2675
-7.34397 -55.0054 92.9798
-7.31691 34.4222 72.2854
-7.31374 -40.7769 50.1545
-7.25936 -38.3275 81.1604
-7.25741 -47.0306 87.5622
-7.24278 54.063 58.7128
-7.23546 40.8903 71.6972
-7.21084 -55.6228 92.7638
-7.20714 -12.6371 40.0415
-7.2023 -34.0106 43.6044
-7.12696 6.04528 38.2724
-7.12246 -17.3776 37.9804
-7.11525 27.8056 46.1099
-7.07845 -7.34627 39.9912
-7.04893 -51.5758 91.9311
-7.04478 -56.3178 76.6952
-6.94651 50.6063 32.7618
-6.92627 -45.323 61.8232
-6.90531 -51.6409 85.9402
-6.89238 45.2779 69.867
-6.87312 -31.1137 41.553
-6.8463 -40.8344 82.7439
-6.84093 47.1974 32.6338
-6.83666 -12.6014 40.2091
-6.82751 -14.595 38.9008
-6.82142 -52.7928 82.7198
-6.8085 -17.3954 38.1945
-6.7985 -56.1624 78.1822
-6.79488 -21.523 37.4822
-6.79046 -51.0603 68.8109
-6.7273 -41.3399 52.3956
-6.532829 -55.1274 90.36286
-6.69463 -52.3193 69.7838
-6.64318 74.3017 69.6183
-6.634 -27.5403 39.6598
-6.63359 -11.8244 40.2162
-6.62001 49.8831 37.6062
-6.61172 -54.7128 79.6864
-6.58075 -42.9834 84.4152
-6.57905 -52.4329 88.3505
-6.53052 -45.1633 85.3572
-6.52247 -53.6797 70.649
-6.52053 79.2041 69.3066
-6.4976 -55.9852 75.0342
-6.48712 -41.9256 54.9835
-6.48614 -43.8768 60.0175
-6.41667 -52.99821 83.6203
-6.46859 -55.5431 79.7176
-6.44903 -14.6459 39.0612
-6.44786 9.98647 38.4489
-6.405647 -54.50284 80.50517
-6.42909 51.194 46.6415
-6.42226 49.6736 41.5708
-6.42128 69.609 69.6321
-6.41909 -48.1516 65.5017
-6.295601 -53.23992 88.28503
-6.39739 -55.535 90.4429
-6.39568 -57.3365 77.3716
-6.39153 74.4865 65.9965
-6.38641 -46.4864 85.6937
-6.37642 -52.6548 91.8901
-6.36544 -42.8997 57.5482
-6.3118 -56.6908 79.9086
-6.29156 -4.80901 38.6981
-6.163969 -54.57774 81.65619
-6.28034 25.4754 44.2194
-6.24937 69.7061 66.305
-6.2367 79.4462 65.6832
-6.23109 83.6174 68.895
-6.22889 -46.127 85.5015
-6.22621 -53.8369 91.3776
-6.2228 -49.0969 66.4027
-6.21548 42.8444 37.1295
-6.2106 -55.5109 90.6417
-6.17744 -50.1833 67.6922
-6.14452 -52.9408 85.2304
-6.10307 14.0028 39.3855
-6.10234 21.7642 42.4291
-6.09429 52.9199 64.6361
-5.730442 -53.20347 85.24948
-6.08625 -57.0571 78.6915
-6.0704 -54.2588 82.6617
-5.735505 -58.10397 78.61462
-5.98676 83.9556 65.5154
-5.906884 -55.92695 80.94157
-5.97921 -14.0544 39.275
-5.96018 47.602 37.5945
-5.95872 50.2147 67.1323
-5.94848 -8.72459 74.0939
-5.94774 44.4013 37.4614
-5.94019 17.8481 40.8246
-5.068983 -57.5226 75.60922
-5.91531 28.2506 44.8578
-5.90556 -39.0159 46.0084
-5.89434 -56.0515 71.8394
-5.87459 -31.0523 41.3223
-5.85972 -36.5036 44.6846
-5.85435 39.9878 40.4301
-5.84363 -25.3867 78.3102
-5.81705 -5.63344 73.4585
-5.81574 -21.7879 37.3841
-4.684371 -58.5194 73.03581
-5.76194 -20.8044 76.2251
-5.75487 51.9667 50.3464
-5.74653 -9.81606 38.6123
-5.74097 -33.5907 43.1221
-5.73317 -40.5135 47.194
-5.73292 87.5308 68.6961
-5.72707 -53.9691 88.8224
-5.69293 -52.1942 86.4447
-5.66977 64.9838 69.4178
-5.66587 -12.0333 74.5897
-5.66099 64.7734 66.5807
-5.6449 -55.446 82.5849
-5.63075 12.0206 72.0954
-5.532105 -53.07507 86.58416
-5.493994 -58.12337 78.53403
-5.59832 -1.63763 72.2898
-5.59174 -41.9244 48.531
-5.5832 -29.0835 79.6876
-5.55882 -57.3604 74.3319
-5.54893 -28.4211 39.4789
-5.54614 -16.5723 75.3636
-5.54391 -17.5912 37.9635
-5.52785 87.9299 65.6793
-4.774208 -58.417 76.60931
-5.50639 -52.6758 69.3573
-5.48518 6.62538 71.2442
-5.45543 -54.5714 88.9545
-4.673346 -53.66436 87.78645
-5.44763 50.2108 67.4925
-5.423 -58.3295 80.196
-5.41569 -54.2939 70.1901
-5.40447 -51.4376 68.5088
-5.36643 73.8816 72.579
-5.36521 16.5477 72.322
-5.35741 -32.6499 81.4067
-5.34229 35.9093 43.8107
-5.32668 -49.1208 90.7389
-5.32303 42.3375 40.9854
-5.32132 -49.5895 62.4047
-5.21544 -53.72251 85.4436
-5.27597 2.37622 71.4378
-5.25109 -36.2205 83.3684
-5.24061 -42.8861 50.8009
-5.23573 78.7603 72.2656
-4.701187 -58.75382 77.38723
-5.201338 -58.16344 78.72208
-5.17404 -47.8056 60.5138
-5.16453 -2.0724 37.625
-5.16356 -54.9815 69.2603
-5.16282 -54.4756 84.3767
-5.16161 -52.7762 90.1918
-4.62502 -59.64462 80.3216
-5.14283 -54.6345 89.092
-5.12308 59.2902 66.9994
-5.11625 -53.8945 68.4703
-4.956108 -59.0779 79.06893
-5.10186 27.5559 72.7472
-5.09748 34.2473 73.4075
-5.08162 45.6483 41.3555
-5.0748 22.4691 72.269
-5.06065 -50.4746 67.4154
-5.03725 69.2564 72.3776
-5.02616 -13.2585 37.774
-5.02432 -43.6347 53.6631
-5.02067 -39.3809 85.2925
-5.01676 59.5574 69.1913
-4.289698 -59.16366 81.24697
-4.97848 -56.0834 70.8794
-4.96166 -46.0216 58.7045
-4.863352 -58.64112 78.98169
-4.93605 91.0599 68.6848
-4.93361 -42.027 87.2496
-4.92459 -58.3338 72.1976
-4.9185 -54.9491 68.9523
-4.959602 -57.19876 82.34917
-4.90557 -56.7308 69.9645
-4.89948 52.7506 54.9752
-4.88948 83.1728 71.7258
-4.618362 -58.39398 77.90125
-4.86973 50.1284 67.8743
-4.86388 -44.7188 56.4085
-4.84559 -57.5487 70.7058
-4.84242 33.449 44.6778
-4.83852 45.0597 70.7767
-4.81267 -52.6997 67.8302
-4.80219 55.2103 67.0796
-4.79072 74.4956 62.9651
-4.77341 -54.4044 68.1384
-4.7678 -50.7477 90.8038
-4.7622 91.4366 66.0189
-4.75805 -48.8626 64.6093
-4.74196 79.593 62.7115
-4.71977 -48.2372 89.8514
-4.68197 69.4798 63.583
-4.66612 -49.677 65.7614
-4.65125 40.3287 72.4285
-4.61443 52.8945 60.1656
-4.60672 -7.64138 37.3477
-4.60478 -22.3937 37.0983
-4.5959 -37.3156 44.0753
-4.59029 -56.567 69.5246
-4.58322 84.2062 62.8224
-4.57425 -56.60395 79.11628
-4.56322 -47.6595 88.6575
-4.53396 -55.0522 69.0338
-4.51992 -17.6637 36.8718
-4.47666 -59.7332 70.2557
-4.46959 -58.6798 74.1071
-4.356732 -54.11233 87.67723
-4.45593 -39.3604 45.3545
-4.43033 87.0611 71.3147
-4.42082 52.1696 65.314
-4.41862 55.0705 69.0099
-4.41667 -34.536 42.5298
-4.381769 -54.8649 86.07432
-4.38473 -53.9391 67.6393
-3.492728 -56.32299 85.09766
-4.289407 -54.65352 68.49362
-4.088428 -61.50942 71.28848
-4.32231 39.8188 44.2911
-4.3206 52.7553 54.8911
-4.30865 64.374 64.4047
-4.30817 51.0145 50.8438
-4.277548 -59.35403 79.01525
-3.971663 -56.77681 78.35282
-4.28134 -54.2812 88.0828
-4.2789 -47.3535 88.6734
-4.18924 -58.14393 69.24612
-4.27427 -51.3954 67.2554
-4.24891 64.8658 71.9174
-4.000009 -57.04823 79.46371
-3.826741 -49.27126 89.85088
-4.1743 -60.0678 72.6992
-4.16308 52.9625 60.3594
-4.16235 44.0568 44.75
-4.15333 -52.0774 89.3018
-4.13699 88.245 63.3186
-4.13577 -58.8137 81.7732
-4.11187 -56.5145 69.284
-4.034231 -58.35589 82.72359
-3.917263 -62.5488 69.51219
-4.08383 -53.8243 69.4137
-4.0514 -58.4858 75.4324
-4.02068 -40.7093 46.64
-4.01263 -55.3946 85.2911
-4.00873 -32.0991 40.7581
-3.99898 33.2854 44.2918
-3.99678 0.375027 37.0861
-3.810803 -59.02991 76.6966
-3.98264 52.2615 65.5091
-3.97581 58.9093 65.4052
-3.95606 -42.2979 48.0131
-3.94509 -45.6573 89.1667
-3.64031 -58.77607 77.52264
-3.88925 3.81366 36.8157
-3.870608 -59.9791 79.66274
-3.87413 94.3795 68.7439
-3.86364 55.4022 65.5603
-3.825637 -60.17159 68.48653
-3.84682 -60.2373 73.7126
-3.8317 90.6843 71.0323
-3.559885 -59.26013 78.93005
-3.615872 -54.52965 86.98022
-3.74709 -64.275 70.5427
-3.716414 -62.63065 68.42374
-3.71954 59.6072 71.3166
-3.71856 -56.3899 67.5773
-3.71222 94.5514 66.5749
-3.68589 48.0772 48.3283
-3.67491 -43.5835 50.2679
-3.502137 -51.63906 88.98415
-3.497389 -60.56852 80.51404
-2.79097 -53.07451 66.89926
-3.571822 -59.85129 74.68607
-3.486801 -62.35495 72.78532
-3.453365 -56.65864 67.69788
-3.5903 8.36517 36.7274
-3.58274 45.1299 71.6492
-3.34831 -56.64304 69.78022
-3.51199 -58.52279 68.99275
-3.52568 -62.1263 67.8404
-3.320541 -55.22783 66.78118
-3.247994 -66.07005 68.76201
-3.237763 -48.87632 89.67763
-3.45326 50.5317 70.5748
-3.43936 -54.4712 68.5061
-2.853414 -59.41317 77.6451
-3.429484 -59.95377 79.13148
-3.41961 91.7487 64.057
-3.39937 39.2378 45.5305
-3.226043 -66.75282 69.97239
-3.028815 -56.9617 78.14417
-3.33402 54.8589 70.7151
-3.081493 -57.27887 79.35775
-3.2994 -44.7483 52.9718
-3.2916 -60.3628 68.1428
-3.26526 -54.865 86.8197
-3.26112 -53.2966 69.8162
-3.339933 -53.5444 69.9972
-3.06185 -65.54677 67.85665
-3.24307 -59.2968 75.941
-3.171072 -65.62655 71.30974
-3.16894 -60.3492 81.5028
-3.16212 43.614 46.48
-3.1231 -50.6095 65.0655
-3.095593 -59.06861 78.49058
-3.139066 -58.04339 66.64931
-3.1053 13.3695 37.3919
-2.981379 -60.64475 79.57169
-3.07994 -51.5978 88.9182
-3.06629 -62.278 67.6553
-3.06068 26.0587 41.4911
-2.902798 -60.01598 78.01149
-3.05019 17.5636 38.5045
-3.04226 -12.4696 36.5058
-3.034225 -58.8045 77.92889
-3.03435 -32.6646 40.6881
-3.03361 21.9568 39.958
-3.03215 -62.0992 74.2858
-2.879282 -57.32027 66.01154
-3.00801 94.2044 70.706
-2.875632 -57.92342 67.01804
-2.9807 -30.0438 39.2138
-2.94388 29.0535 42.4906
-2.93071 -51.3271 66.5498
-2.92242 -50.2028 63.6654
-2.91169 -5.69074 74.0274
-2.90682 -49.7663 59.5028
-2.87731 -60.4182 68.2418
-2.87585 -46.2521 55.5033
-2.86439 -8.44516 74.4699
-2.8639 -64.314 67.4293
-2.84147 -63.8215 73.2963
-2.786216 -68.33181 70.07161
-2.82537 -51.5734 61.5423
-2.82294 -60.5316 75.9705
-2.743548 -59.21146 66.17813
-2.81318 -58.7886 83.5296
-2.80709 -47.7926 57.6977
-2.70993 -66.15316 72.06184
-2.79514 -59.7501 82.118
-2.798626 -58.98419 69.17964
-2.680162 -59.72022 77.20122
-2.751 96.7506 68.6987
-2.73979 33.3276 43.8736
-2.73101 -11.4537 74.8264
-2.624663 -57.25732 78.66103
-2.615739 -67.90698 68.53922
-2.71004 -35.3644 42.2628
-2.70248 -54.3471 68.5332
-2.68956 -48.1118 89.6999
-2.65591 -60.7949 76.9873
-2.63957 -15.8298 75.428
-2.63664 -56.8484 85.4481
-2.63128 -38.0966 43.7427
-2.609814 -60.67022 78.29595
-2.59251 96.6799 67.1055
-2.5769 -62.325 67.7039
-2.56617 -54.5224 87.2337
-2.56178 94.7089 65.0614
-2.54935 -66.2584 67.5444
-2.54642 -51.4968 89.036
-2.53618 -5.82777 36.7469
-2.52716 -54.697 66.292
-2.5235 -1.69542 73.0808
-2.528021 -60.97235 64.55683
-2.51521 2.52009 72.2944
-2.51493 -17.6712 35.8303
-2.48132 -20.0415 76.449
-2.47498 -62.1524 75.2037
-2.47303 73.2135 74.2244
-2.362964 -68.74971 71.17334
-2.43349 -23.4823 36.763
-2.41353 -39.8959 45.0911
-2.200902 -61.27689 80.17262
-2.39353 78.1261 73.9935
-2.36452 16.6335 72.844
-2.35232 -55.1873 69.2013
-2.251458 -68.91091 69.19117
-2.32331 -64.4013 67.3452
-2.32063 -24.9482 78.9029
-2.29405 68.7061 73.8896
-2.174042 -65.41369 73.45268
-2.26966 -54.5073 68.6961
-2.26088 -56.7833 68.6887
-2.2326 -53.9818 71.7277
-2.2326 27.7551 73.3119
-2.23065 12.2969 72.5973
-2.22016 7.06161 71.963
-2.21919 22.3889 72.9186
-2.21748 -52.5056 71.866
-2.20602 -58.3397 67.6685
-2.204352 -56.72029 65.48329
-2.147866 -61.86754 76.37864
-2.17018 -62.5657 68.2086
-2.16774 -52.2773 71.5434
-2.16091 -27.9784 80.3757
-2.15896 82.7159 73.2995
-1.708849 -60.12177 63.49744
-2.14335 39.266 45.3852
-2.125175 -62.50731 63.81698
-1.453314 -68.12492 67.2617
-2.12385 96.7881 70.1406
-2.11409 -59.7771 66.1911
-2.09922 79.4265 61.2409
-1.942716 -69.67639 70.59324
-2.09556 74.3283 61.4872
-1.817374 -57.43347 67.10773
-1.986674 -61.28364 78.47838
-2.06654 -62.6364 64.0909
-2.048553 -59.21199 68.05779
-2.05874 84.1616 61.4706
-2.0546 -41.0961 46.6061
-2.019126 -61.31425 64.60618
-2.04923 69.2781 62.3391
-2.03972 33.4339 73.7084
-2.03094 -31.5114 82.472
-1.98339 -34.8647 84.9334
-1.941101 -60.84423 66.47222
-1.97486 43.6291 46.5293
-1.914424 -57.45234 69.12836
-1.649404 -69.5714 69.56201
-1.913668 -55.43231 69.71481
-1.9317 -61.5157 65.2506
-1.92219 -66.5878 67.1701
-1.90976 47.6885 48.7139
-1.90098 -41.6242 88.2888
-1.89293 64.5371 73.3924
-1.89049 86.6412 72.8104
-1.689668 -69.78159 71.32275
-1.88513 64.1319 63.3477
-1.543707 -64.70989 68.12363
-1.86538 -56.259 67.8482
-1.85026 88.3569 62.1989
-1.84489 -57.2531 70.7906
-1.83368 50.35 52.239
-1.674513 -70.79194 70.50068
-1.813801 -60.25741 65.42499
-1.780288 -62.79992 76.60822
-1.791 52.5236 55.8623
-1.78735 -42.6079 48.0955
-1.78686 50.6758 72.1357
-1.77369 -38.3694 86.957
-1.706233 -59.06569 66.536
-1.66936 -62.18901 65.60785
-1.190697 -69.29075 72.26067
-1.73638 -44.8922 89.4744
-1.73126 53.0569 61.1687
-1.72712 58.6942 64.5361
-1.540364 -66.43757 74.11843
-1.70469 59.5155 72.7245
-1.68518 39.8049 73.3644
-1.67201 45.0811 72.5319
-1.551468 -70.95834 69.80968
-1.64982 55.2844 64.7705
-1.633225 -61.73087 68.95302
-1.6191 96.6689 65.976
-1.385715 -63.26105 64.5748
-1.61325 -61.1212 65.2318
-1.61325 54.9771 72.1871
-1.08242 -68.9818 67.94501
-1.58789 90.413 72.5214
-1.58691 -59.0029 69.8514
-1.5674 52.1922 64.799
-1.49937 -43.9244 50.3078
-1.48864 91.9835 63.3213
-1.45841 -66.642 67.3176
-1.43353 -60.9705 80.3879
-1.41622 -47.858 90.0513
-1.40379 98.6189 68.7836
-1.314183 -62.62177 64.02789
-1.38647 -52.659 66.8068
-1.22824 -63.62665 65.05816
-1.38184 -59.0481 83.3645
-1.260324 -70.12236 69.25309
-1.3499 -51.3483 65.9031
-1.274844 -70.57175 69.18374
-1.275054 -64.20232 63.32536
-1.29235 -59.7657 82.159
-1.28089 -54.2027 66.1818
-1.27797 -62.4121 64.7568
-1.2748 98.4965 67.8407
-0.8831906 -71.57675 69.71889
-0.8006296 -51.56324 64.30679
-1.21091 94.0854 71.9791
-1.18116 -57.0998 85.5681
-1.181772 -63.58412 62.90125
-1.15726 -51.4832 89.2349
-1.126785 -70.72543 71.55013
-1.063611 -61.57062 78.6349
-1.11581 -45.2786 52.7343
-1.09362 -54.7835 87.7383
-1.0785 94.925 64.5508
-1.03803 -56.3085 65.2238
-0.7559358 -71.85242 70.64114
-1.01998 98.7535 69.6185
-0.6678485 -70.70798 70.16288
-0.976823 -63.2736 77.04
-0.8319232 -62.23602 62.38114
-0.7207129 -51.75992 72.02803
-0.5650234 -71.98756 70.10681
-0.6329718 -59.44411 63.33515
-0.5390486 -52.03165 72.30499
-0.788147 -66.32999 75.06082
-0.5412288 -63.72921 63.96761
-0.809549 96.7611 70.9718
-0.791993 -53.6802 72.071
-0.3178669 -69.28246 67.72354
-0.698358 -46.8795 54.8462
-0.2159613 -69.67884 68.33268
-0.5484286 -69.44688 72.64902
-0.656417 -56.9896 70.7121
-0.646664 -60.8664 80.711
-0.634715 -58.7654 69.9035
-0.626425 -57.3419 69.2749
-0.620085 98.4999 67.2262
-0.618134 -59.3836 67.9311
-0.615696 -51.4719 63.0134
-0.5246688 -70.43948 69.91525
-0.1234966 -61.01794 62.41217
-0.598871 -60.6408 69.0799
-0.598627 -62.6635 68.5085
-0.5601 -61.2694 65.8348
-0.552541 -64.7595 68.175
-0.3054973 -70.32915 68.60214
-0.532303 -66.9402 67.6007
-0.529864 -55.1703 70.2388
-0.522305 -48.7877 56.9188
-0.520842 -68.4915 67.3247
-0.3095486 -63.15446 64.55711
-0.3707832 -64.17688 63.81498
-0.2812579 -64.18159 64.37139
-0.3895121 96.88893 65.65781
-0.484998 -50.7594 58.8976
-0.4319007 -64.78574 62.81078
-0.47183 -52.4441 61.1275
-0.04262182 -64.51659 62.25032
-0.217964 -63.9786 63.26682
-0.2889111 -61.3826 78.95801
-0.339913 -51.9367 65.6246
-0.3213017 -71.59584 69.65408
0.01844999 -62.467 61.95279
-0.05392833 98.99207 69.98792
-0.188244 -53.8362 65.5274
0.1845971 100.0233 69.18846
-0.168249 -63.4896 77.1878
-0.02655068 -70.86563 68.92478
-0.126065 -55.982 65.2884
0.3817447 99.85464 68.31754
-0.07478374 -66.21703 75.43558
0.04524235 -59.11235 63.32804
0.2187999 -72.08939 70.67356
-0.2884808 -71.46778 71.47988
0.03554185 -69.04105 73.16395
0.1906945 -63.9805 63.63932
0.034625 -59.2126 67.6141
0.1355815 -55.59806 69.92903
0.07241583 -61.08368 65.49931
0.116208 98.67116 67.113
-0.09088428 -63.23237 62.00359
0.7976559 -68.55728 67.35257
0.6427571 -67.21742 67.81669
0.6453971 -64.65309 68.18974
1.084379 -69.7294 68.14619
1.514509 -69.25962 67.67767
1.485656 -64.78269 62.55766
0.635691 -64.6949 62.6886
1.019529 -63.37723 61.95399
0.635691 -63.3965 77.108
0.6586021 -61.12426 79.132
0.765134 -59.31126 63.2569
0.635691 -53.7416 65.6664
0.635935 -51.9277 62.733
0.635935 -51.8601 64.3025
0.636179 -58.545 83.1158
0.636422 -56.8567 85.3237
0.636422 -54.5829 87.5066
0.636422 -51.4532 89.1386
0.636422 -51.3061 58.4916
0.636422 -49.205 56.5606
0.636422 -47.7409 90.123
0.636422 -47.1352 54.5412
0.636422 -45.5669 52.606
0.636422 -45.078 89.7097
0.636422 -41.811 88.4617
0.636422 -38.6165 87.1972
0.636422 -34.7511 84.6378
0.636422 -31.5249 82.4713
0.636422 -27.8592 80.4177
0.636422 -24.6617 78.9971
0.636422 -19.5426 76.4124
0.636422 -15.5363 75.2363
0.636422 -11.1174 74.7589
0.636422 1.57716 36.4126
0.636422 6.19256 36.4875
0.636422 7.36177 72.4619
0.636422 12.4878 72.974
0.636422 13.2747 37.1719
0.636422 16.7191 73.3661
0.636422 17.5787 38.0154
0.636422 22.3084 73.5682
0.636422 22.4569 39.2755
0.636422 26.4447 40.6684
0.636422 27.9541 73.8769
0.636422 29.6066 41.8166
0.636422 32.8306 74.0206
0.636422 33.5614 43.305
0.636422 39.1256 45.2638
0.636422 39.2931 73.6577
0.636422 43.3928 46.4761
0.636422 44.6483 72.9067
0.636422 47.5551 49.0255
0.636422 49.4971 53.2954
0.636422 50.5814 72.5307
0.636422 51.2491 56.9364
0.636422 51.884 64.6603
0.636422 52.2471 61.008
0.636422 54.964 72.6758
0.636422 55.0164 64.5347
0.636422 58.4211 64.2314
0.636422 59.405 73.1705
0.636422 64.0751 62.967
0.636422 64.3355 73.8223
0.636422 68.4244 74.3049
0.636422 69.2552 61.9873
0.636422 72.8857 74.6572
0.636422 74.3051 61.0619
0.636422 77.8327 74.4492
0.636422 79.2422 60.8193
0.636422 82.545 73.696
0.636422 84.0099 61.0853
0.636422 86.4869 73.181
0.636422 88.313 61.8971
0.636422 90.2964 72.8916
0.636422 92.0454 63.1533
0.636422 94.0169 72.2842
0.636422 95.0213 64.481
0.636422 96.7274 71.1418
0.8713179 99.79918 68.25843
1.081524 100.0522 69.21501
0.8087577 100.1281 68.90428
0.636423 -44.0819 50.4571
0.636423 -42.7098 48.4369
0.636423 -41.3777 46.9375
0.636423 -40.2931 45.3381
0.636423 -38.6662 43.9546
0.636423 -36.0354 42.483
0.636423 -33.2915 41.0105
0.636423 -30.827 39.5645
0.636423 -24.0141 36.4499
0.636423 -17.5438 35.3448
0.636423 -11.6973 36.2609
0.636423 -8.29373 74.4921
0.636423 -5.68074 74.1842
0.636423 -2.92242 36.4216
0.636423 -1.41817 73.5838
0.636423 2.67078 72.9781
0.636666 -59.3858 82.1565
0.636666 -52.9438 60.8588
0.636666 -52.0398 72.4253
0.636666 -51.6048 72.25
0.63691 -60.4036 81.029
0.5801865 -57.10165 68.91878
0.63691 -53.6065 72.202
0.63691 -52.1918 65.5773
0.6233608 -71.99886 70.16147
1.220684 -71.04465 71.82879
0.6668541 -70.49464 68.53593
0.6638728 -66.04375 75.4957
1.092938 -64.10453 63.67399
0.637154 -64.0938 64.1455
0.637154 -63.8098 63.2382
0.637154 -63.096 64.4103
0.637154 -62.4986 68.3725
0.637154 -60.4204 68.9704
1.152061 -59.218 67.56388
0.8546774 -58.10527 70.15219
0.637154 -55.8625 65.4571
1.293865 -56.65374 69.31418
1.340517 -62.47579 61.97318
1.436356 -61.01556 62.42995
1.427812 -64.55501 62.34356
1.297586 -70.65978 68.72633
1.559258 -71.5799 69.63683
1.616164 -64.71093 62.86184
1.353889 -63.23698 64.47591
1.487014 98.74757 67.24928
1.23529 -61.1268 65.4742
1.609221 -64.19261 63.81577
1.454317 -63.99426 63.25747
1.694972 -64.15531 64.42936
1.268423 -68.60838 73.49914
1.803324 -72.01089 70.14439
1.502861 -72.06785 70.76985
1.270887 -59.1577 63.30955
1.334951 -66.12418 75.50941
1.39891 -55.982 65.2884
1.44109 -63.4896 77.1878
1.46109 -53.8362 65.5274
1.52132 98.813 70.0389
1.542139 -61.38707 78.95496
1.905527 -70.50622 70.14008
1.57691 -51.7051 64.3167
1.61276 -51.9367 65.6246
1.856825 -63.68287 64.00005
1.777302 -51.73246 72.08089
1.74468 -52.4441 61.1275
1.75784 -50.7594 58.8976
1.76613 96.7772 65.6054
2.242436 -70.84936 71.63293
1.903288 -69.03962 72.90669
1.79515 -48.7877 56.9188
1.79539 -68.4915 67.3247
1.80368 -55.1703 70.2388
1.791777 -70.22091 68.73503
1.8071 -66.9402 67.6007
1.82709 -64.7595 68.175
1.83465 -61.2694 65.8348
1.93148 -52.03331 72.2842
1.87342 -62.6635 68.5085
1.87367 -60.6408 69.0799
1.88854 -51.4719 63.0134
1.89269 -59.3836 67.9311
1.90049 -57.3419 69.2749
2.007047 -58.02045 70.26704
1.91951 -60.8664 80.711
2.494217 -69.55834 69.0584
1.9712 -46.8795 54.8462
2.107511 -71.54895 69.75752
1.961866 -59.42472 63.36586
2.058742 -66.12016 75.22292
2.06606 -53.6802 72.071
2.08239 96.7611 70.9718
1.896545 -62.52286 62.21397
2.590002 -62.66462 63.95927
2.515386 -68.96523 68.1144
2.24967 -63.2736 77.04
2.479571 -63.65043 65.04462
2.316344 -71.67489 70.42619
2.452111 -63.51402 62.89704
2.29283 98.7535 69.6185
2.31087 -56.3085 65.2238
2.278939 -61.52689 78.71938
2.35135 94.925 64.5508
2.36647 -54.7835 87.7383
2.548115 -70.11386 69.26529
2.38866 -45.2786 52.7343
2.650217 -63.35872 64.56233
2.553347 -70.6076 69.1879
2.513344 -69.13808 72.30123
2.43011 -51.4832 89.2349
2.45401 -57.0998 85.5681
2.48375 94.0854 71.9791
2.49717 -51.3744 64.452
2.599005 -71.27866 69.76576
2.545938 -61.34523 62.85147
2.54764 98.4965 67.8407
2.831275 -61.55602 65.08732
2.55374 -54.2027 66.1818
2.661713 -64.08698 63.38522
2.5652 -59.7657 82.159
2.98054 -62.11964 65.64594
2.62274 -51.3483 65.9031
2.65469 -59.0481 83.3645
2.65932 -52.659 66.8068
2.6698 -68.173 67.2601
2.67663 98.6189 68.7836
2.68907 -47.858 90.0513
2.70638 -60.9705 80.3879
2.7215 -55.38 69.9004
2.7332 -66.642 67.3176
3.231517 -60.69205 66.6086
2.76149 91.9835 63.3213
2.893851 -68.0736 72.45135
2.77222 -43.9244 50.3078
2.89834 -70.88374 70.42673
3.150674 -57.35028 69.1936
2.80392 -64.6973 68.1279
2.81391 -59.2636 68.0594
2.825083 -65.74124 74.63972
2.84025 52.1922 64.799
2.878686 -70.50565 69.75024
2.86073 90.413 72.5214
2.86146 -59.0029 69.8514
2.858068 -62.82684 68.63896
2.88609 54.9771 72.1871
2.89194 96.6689 65.976
3.035605 -59.89276 63.63412
2.92267 55.2844 64.7705
2.985545 -69.80411 71.28377
2.94486 45.0811 72.5319
2.95241 -64.5898 75.3807
2.95802 39.8049 73.3644
3.500204 -61.3408 64.55511
2.97753 59.5155 72.7245
3.02864 -58.03003 67.09296
2.99996 58.6942 64.5361
3.00411 53.0569 61.1687
3.00923 -44.8922 89.4744
3.035732 -60.98241 64.94248
3.04654 -38.3694 86.957
3.226219 -69.6705 70.39722
3.0597 50.6758 72.1357
3.06019 -42.6079 48.0955
3.06385 52.5236 55.8623
3.07726 -62.7566 76.6109
3.103706 -58.288 66.72824
3.251011 -61.27687 78.53988
3.10652 50.35 52.239
3.1192 -57.2531 70.7906
3.1231 88.3569 62.1989
3.13968 -56.259 67.8507
3.14993 -64.5744 67.8124
3.15797 64.1319 63.3477
3.16334 86.6412 72.8104
3.16577 64.5371 73.3924
3.17382 -41.6242 88.2888
3.1826 47.6885 48.7139
3.481482 -56.75111 65.47242
3.19699 -66.5878 67.1701
3.2065 -61.5157 65.2506
3.2065 -55.4763 69.6631
3.440954 -62.49104 63.87001
3.24771 43.6291 46.5293
3.25624 -34.8647 84.9334
3.30379 -31.5114 82.472
3.31257 33.4339 73.7084
3.32208 69.2781 62.3391
3.32744 -41.0961 46.6061
3.33159 84.1616 61.4706
3.485985 -61.25716 80.16137
3.33939 -59.1332 68.064
3.3411 -62.6364 64.0909
3.35719 -56.1239 67.6905
3.36841 74.3283 61.4872
3.37206 79.4265 61.2409
3.38889 -59.7771 66.1911
3.39669 96.7881 70.1406
3.516728 -68.91916 69.19135
3.725377 -67.8254 68.16222
3.41205 -65.9521 73.1237
3.4162 39.266 45.3852
3.41669 -52.2773 71.5434
3.41554 -61.85247 76.4388
3.635224 -68.76283 71.16448
3.4318 82.7159 73.2995
3.43375 -27.9784 80.3757
3.423515 -61.9777 68.51723
3.47887 -52.5056 71.866
3.48057 -58.3397 67.6685
3.49203 22.3889 72.9186
3.49301 7.06161 71.963
3.50349 12.2969 72.5973
3.50544 27.7551 73.3119
3.50617 -53.9818 71.7277
3.53544 -56.7835 68.69
3.54397 -54.5073 68.6961
3.56689 68.7061 73.8896
3.59347 -24.9482 78.9029
3.788913 -63.05088 67.51528
4.052246 -57.09041 65.94937
3.932831 -67.36768 71.33344
3.929205 -58.84331 66.44188
3.62639 -55.1873 69.2013
3.63736 16.6335 72.844
3.66638 78.1261 73.9935
3.68637 -39.8959 45.0911
3.70442 -23.4733 36.763
3.74587 73.2135 74.2244
3.74782 -62.1524 75.2037
3.75416 -20.0415 76.449
3.790661 -60.86626 64.53448
4.033711 -68.39174 70.04193
3.78805 2.52009 72.2944
3.79635 -1.69542 73.0808
3.79854 -17.6445 35.8303
4.062104 -53.11354 66.90582
4.212331 -57.59435 66.12732
3.80902 -5.82777 36.7469
3.81927 -51.4968 89.036
4.224218 -65.99415 67.85101
3.83463 94.7089 65.0614
3.83902 -54.5224 87.2337
3.875531 -60.6889 78.15305
3.86535 96.6799 67.1055
3.90412 -38.0966 43.7427
3.953562 -56.83467 85.44763
3.91241 -15.8298 75.428
3.92875 -60.7949 76.9873
3.890798 -57.22268 78.54523
3.943418 -59.74922 77.192
3.99781 -54.36778 68.48798
3.9624 -48.1118 89.6999
4.218623 -58.75203 66.40498
3.98288 -35.3644 42.2628
3.98313 -67.9663 68.9604
4.00385 -11.4537 74.8264
4.01263 33.3276 43.8736
4.02385 96.7506 68.6987
4.670239 -58.57045 68.98885
4.648256 -60.38139 79.77337
4.06798 -59.7501 82.118
4.262976 -65.34145 72.11389
4.07993 -47.7926 57.6977
4.08603 -58.7886 83.5296
4.775315 -56.56608 67.75381
4.09578 -60.5316 75.9705
4.09822 -51.5734 61.5423
4.11431 -63.8215 73.2963
4.296938 -59.0279 77.92157
4.13675 -64.314 67.4293
4.13723 -8.44516 74.4699
4.14869 -46.2521 55.5033
4.15016 -60.4182 68.2418
4.17966 -49.7663 59.5028
4.238588 -60.0607 78.17334
4.18454 -5.69074 74.0274
4.388168 -56.93462 78.13154
4.19527 -50.2028 63.6654
4.20356 -51.3271 66.5498
4.21673 29.0535 42.4906
4.25354 -30.0438 39.2138
4.367736 -59.08334 78.45171
4.326645 -57.28519 79.34588
4.28086 94.2044 70.706
4.906176 -60.78984 73.84705
4.30646 21.9568 39.958
4.30719 -32.6646 40.6881
4.32304 17.5636 38.5045
4.33353 26.0587 41.4911
4.33523 -12.4497 36.5058
4.33913 -62.278 67.6553
4.527734 -51.66195 88.87616
4.375683 -56.76139 69.91885
4.37815 13.3695 37.3919
4.39595 -50.6095 65.0655
4.43496 43.614 46.48
4.44179 -60.3492 81.5028
4.463 -48.6573 89.6885
4.835976 -59.83607 74.73679
4.47788 -53.2966 69.8162
4.530816 -53.46958 70.06196
4.51613 -65.96525 68.6285
4.470352 -66.86113 69.94431
4.51592 -59.2968 75.941
4.726179 -54.51904 86.98936
4.56444 -60.3628 68.1428
4.57224 -44.7483 52.9718
4.838095 -59.87794 79.26501
4.852857 -59.17717 76.60629
4.60687 54.8589 70.7151
4.698529 -58.94452 77.56298
4.64345 -63.4391 72.3066
4.67222 39.2378 45.5305
4.69246 91.7487 64.057
4.724929 -59.12035 78.89097
4.797818 -60.57286 80.54863
4.72611 50.5317 70.5748
4.74732 -49.1116 89.7309
4.77414 -55.7606 67.1243
4.79853 -62.1263 67.8404
4.85559 45.1299 71.6492
4.86315 8.36517 36.7274
4.950185 -61.27172 73.16819
4.89558 -53.34 67.3513
5.150519 -57.10763 79.48985
5.23982 -51.73909 89.28394
4.94776 -43.5835 50.2679
4.95873 48.0772 48.3283
4.98506 94.5514 66.5749
4.9914 -56.3899 67.5773
4.99238 59.6072 71.3166
4.993969 -60.6195 68.30647
5.062469 -62.66252 68.71333
5.073904 -63.82137 70.6623
5.02237 -57.5855 83.7405
5.569862 -59.35332 79.03227
5.06943 -54.5009 87.1757
5.08894 -49.2484 89.8667
5.159864 -58.70603 77.53243
5.10455 90.6843 71.0323
5.318506 -56.75954 78.40749
5.13649 55.4022 65.5603
5.14697 94.3795 68.7439
5.16209 3.81366 36.8157
4.859949 -59.09257 77.11257
5.21793 -45.6573 89.1667
5.22891 -42.2979 48.0131
5.24866 58.9093 65.4052
5.25548 52.2615 65.5091
5.26963 0.375027 37.0861
5.27182 33.2854 44.2918
5.28157 -32.0991 40.7581
5.28548 -55.3946 85.2911
5.29352 -40.7093 46.64
5.32425 -58.4858 75.4324
5.35668 -53.8243 69.4137
5.439627 -61.30678 69.80493
5.38057 -58.5187 82.3913
5.422369 -54.69033 68.49503
5.38472 -56.5145 69.284
5.39984 -60.9188 71.7133
5.40862 -58.8137 81.7732
5.40983 88.245 63.3186
5.35386 -58.74427 69.08154
5.43519 44.0568 44.75
5.43593 52.9625 60.3594
5.47128 -49.9353 90.1862
5.581054 -54.99382 85.89796
5.52176 64.8658 71.9174
5.54712 -51.3954 67.2554
5.55175 -47.3535 88.6734
5.55419 -54.2812 88.0828
5.704129 -59.35607 80.84187
5.58101 51.0145 50.8438
5.5815 64.374 64.4047
5.59345 52.7553 54.8911
5.59515 39.8188 44.2911
5.62295 -59.8903 71.4158
5.64563 -56.1054 83.9834
5.794451 -58.41206 77.83504
5.65758 -53.9391 67.6393
5.68952 -34.536 42.5298
5.69147 55.0705 69.0099
5.69366 52.1696 65.314
5.829673 -53.75035 87.73029
5.70317 87.0611 71.3147
5.72878 -39.3604 45.3545
5.73122 -54.23 87.8251
5.845881 -56.60554 79.11869
5.74243 -58.6798 74.1071
5.74682 -59.6216 79.6315
5.80681 -55.0522 69.0338
5.81607 -17.6184 36.8718
6.010488 -58.73913 77.35487
5.83607 -47.6595 88.6575
5.85606 84.2062 62.8224
5.86313 -56.567 69.5246
5.86874 -37.3156 44.0753
5.87191 -59.6794 80.287
5.87313 -22.3577 37.0983
5.8863 -7.6378 37.3477
5.88727 52.8945 60.1656
6.263363 -58.21775 72.32456
5.92409 40.3287 72.4285
5.93897 -49.677 65.7614
5.95482 69.4798 63.583
6.379901 -58.23351 76.79668
5.99261 -48.2372 89.8514
6.0148 79.593 62.7115
6.03089 -48.8626 64.6093
6.03504 91.4366 66.0189
6.04065 -50.7477 90.8038
6.04626 -54.4044 68.1384
6.313163 -58.94253 78.92291
6.06357 74.4956 62.9651
6.07503 55.2103 67.0796
6.08551 -52.6997 67.8302
6.11136 45.0597 70.7767
6.11526 33.449 44.6778
6.11843 -57.5487 70.7058
6.104935 -57.45752 82.34953
6.13672 -44.7188 56.4085
6.14257 50.1284 67.8743
6.16232 83.1728 71.7258
6.17232 52.7506 54.9752
6.17842 -56.7308 69.9645
6.369064 -54.96388 69.06477
6.20646 -42.027 87.2496
6.2089 91.0599 68.6848
6.2345 -46.0216 58.7045
6.418596 -53.81069 85.41408
6.25133 -56.0834 70.8794
6.26303 -57.6172 75.5521
6.392364 -57.48978 81.13037
6.28961 59.5574 69.1913
6.29351 -39.3809 85.2925
6.29717 -43.6347 53.6631
6.31009 69.2564 72.3776
6.3335 -50.4746 67.4154
6.34716 -13.2181 37.774
6.34764 22.4691 72.269
6.35447 45.6483 41.3555
6.486836 -58.19691 78.71459
6.37032 34.2473 73.4075
6.37471 27.5559 72.7472
6.3891 -53.8945 68.4703
6.39592 59.2902 66.9994
6.41567 -54.6345 89.092
6.43445 -52.7762 90.1918
6.43567 -54.4756 84.3767
6.43738 -2.0724 37.625
6.44689 -47.8056 60.5138
6.50858 78.7603 72.2656
6.51345 -42.8861 50.8009
6.52394 -36.2205 83.3684
6.54881 2.37622 71.4378
6.5671 -58.745 79.3689
6.59416 -49.5895 62.4047
6.59587 42.3375 40.9854
6.59953 -49.1208 90.7389
6.61513 35.9093 43.8107
6.63025 -32.6499 81.4067
6.63806 16.5477 72.322
6.63928 73.8816 72.579
6.825064 -58.07356 78.55991
6.67732 -51.4376 68.5088
6.68853 -54.2939 70.1901
6.69585 -58.3295 80.196
6.818966 -53.06165 86.55727
6.72047 50.2108 67.4925
6.922013 -54.23063 89.06269
6.72828 -54.5714 88.9545
6.75803 6.62538 71.2442
6.77924 -52.6758 69.3573
6.8007 87.9299 65.6793
6.81606 -28.4159 39.4789
6.81899 -16.5723 75.3636
6.83167 -57.3604 74.3319
6.84727 -17.546 37.9617
6.85605 -29.0835 79.6876
6.86458 -41.9244 48.531
6.87116 -1.63763 72.2898
6.9036 12.0206 72.0954
6.91774 -55.446 82.5849
6.93383 64.7734 66.5807
6.93871 -12.0333 74.5897
6.94261 64.9838 69.4178
6.96578 -52.1942 86.4447
6.97675 -53.2244 85.4842
7.00577 87.5308 68.6961
7.00601 -40.5135 47.194
7.01381 -33.5907 43.1221
7.02771 51.9667 50.3464
7.181516 -55.9193 80.94639
7.03478 -20.8044 76.2251
7.06868 -56.7718 73.1454
7.06868 -9.78993 38.6123
7.08648 -21.7466 37.3841
7.08989 -5.63344 73.4585
7.308223 -53.34829 83.87402
7.11647 -25.3867 78.3102
7.1272 39.9878 40.4301
7.13256 -36.5036 44.6846
7.14744 -31.0523 41.3223
7.16719 -56.0515 71.8394
7.1784 -39.0159 46.0084
7.18816 28.2506 44.8578
7.19255 -56.8601 75.8959
7.21303 17.8481 40.8246
7.22059 44.4013 37.4614
7.22132 -8.72459 74.0939
7.23156 50.2147 67.1323
7.23303 47.602 37.5945
7.2596 83.9556 65.5154
7.244618 -57.56561 78.56741
7.3052 -14.0189 39.2695
7.35474 -54.37439 82.4684
7.36714 52.9199 64.6361
7.37518 21.7642 42.4291
7.37592 14.0028 39.3855
7.41737 -52.9408 85.2304
7.589994 -53.3329 88.37855
7.45029 -50.1833 67.6922
7.48345 -55.5109 90.6417
7.48833 42.8444 37.1295
7.49564 -49.0969 66.4027
7.49906 -53.8369 91.3776
7.50174 -46.127 85.5015
7.50393 83.6174 68.895
7.50954 79.4462 65.6832
7.52222 69.7061 66.305
7.55319 25.4754 44.2194
7.615127 -54.53724 80.77465
7.5644 -4.80901 38.6981
7.58464 -56.6908 79.9086
7.63829 -42.8997 57.5482
7.64926 -52.6548 91.8901
7.65926 -46.4864 85.6937
7.66438 74.4865 65.9965
7.66852 -57.3365 77.3716
7.67023 -55.535 90.4429
7.69193 -48.1516 65.5017
7.69413 69.609 69.6321
7.6951 49.6736 41.5708
7.70193 51.194 46.6415
7.72071 9.98647 38.4489
7.876359 -54.7329 79.68456
7.75899 -43.8768 60.0175
7.75996 -41.9256 54.9835
7.77045 -55.9852 75.0342
7.864062 -55.13623 90.35736
7.77801 -14.6114 39.0536
7.79337 79.2041 69.3066
7.79532 -53.6797 70.649
7.80337 -45.1633 85.3572
7.84872 -52.4329 88.3505
7.8536 -42.9834 84.4152
7.88871 -27.5244 39.6598
7.89286 49.8831 37.6062
7.91602 74.3017 69.6183
7.96747 -52.3193 69.7838
7.96845 -11.798 40.2075
8.00014 -41.3399 52.3956
8.0633 -51.0603 68.8109
8.06745 -21.4843 37.4821
8.07135 -56.1624 78.1822
8.09427 -52.7928 82.7198
8.11378 47.1974 32.6338
8.11841 -17.3609 38.1897
8.11914 -40.8344 82.7439
8.103783 -31.10543 41.54318
8.15962 -14.5621 38.893
8.16523 45.2779 69.867
8.17327 -12.5743 40.199
8.19912 -45.323 61.8232
8.21936 50.6063 32.7618
8.31763 -56.3178 76.6952
8.32177 -51.5758 91.9311
8.32738 -51.6409 85.9402
8.3881 27.8056 46.1099
8.39419 -7.33154 39.9912
8.3998 6.04528 38.2724
8.550283 -54.84187 90.13605
8.43272 -17.3456 37.9756
9.351349 -34.2568 43.89845
8.497427 -55.44629 92.8672
8.50831 40.8903 71.6972
8.51562 54.063 58.7128
8.53026 -47.0306 87.5622
8.53221 -38.3275 81.1604
8.54903 -12.6099 40.0314
8.58658 -40.7769 50.1545
8.58975 34.4222 72.2854
8.6334 -52.9947 81.2675
8.64071 22.1677 70.8826
8.66461 3.1587 38.5233
8.6968 -52.0915 85.8643
8.6985 -55.4197 77.8944
8.71167 -54.4807 76.0008
8.72362 -26.8 39.5035
8.757179 -56.30723 92.47962
8.76093 -47.1292 63.5835
9.457032 -54.9402 91.32185
8.921224 -55.93714 92.34164
8.979815 -51.62133 84.32907
8.88138 51.0318 29.0421
8.91016 -54.0559 73.8021
8.92113 -9.91551 41.2887
8.93357 26.1601 70.8348
8.95819 -46.3567 66.9897
8.98331 -40.7425 59.2865
8.98599 -17.3599 35.4409
8.98624 54.4024 53.5275
8.99282 -10.6704 40.8759
9.01403 -54.4965 93.1715
9.03671 -39.9634 48.8446
9.04451 -34.3814 79.6179
9.04817 0.519135 38.9924
9.04988 -14.6879 36.8618
9.05963 -39.8883 57.0749
9.262188 -51.37468 83.52113
9.0706 -47.1587 67.5166
9.10499 -52.1642 85.7427
9.008965 -53.18048 79.8909
9.10986 -41.723 61.4023
9.13449 -36.479 45.3374
9.17424 52.6904 29.3332
9.332446 -55.75595 92.11241
9.19545 24.719 47.0755
9.245665 56.19138 2.745755
9.220737 55.75197 3.364505
9.2369 -19.7547 36.4377
9.23812 -48.1628 89.4332
9.344506 56.30423 1.482687
9.28343 54.9944 2.792747
9.29884 55.7652 1.68785
9.31469 -10.7494 40.6703
9.3181 33.0864 43.2377
9.31883 31.4463 45.077
9.290489 58.81685 3.955999
9.34151 36.2485 39.743
9.35151 -30.5202 77.6979
9.36126 -53.4051 77.6781
9.36784 27.9051 70.8197
9.38052 39.4765 36.1137
9.38296 -52.0116 87.9004
9.39954 18.2068 44.9724
9.40564 -42.9897 63.1836
9.41198 43.6922 32.1179
9.41466 -39.3699 54.8889
9.42783 21.8249 46.8234
9.44856 52.4419 41.6581
9.443612 57.0699 4.891116
9.47757 -38.7837 47.6127
9.48269 54.4483 48.8014
9.49025 54.7394 3.84461
9.50123 57.1193 2.16968
9.5122 -42.9397 79.7718
9.52025 53.6404 45.6022
9.492169 60.56772 4.111906
9.649236 60.27064 2.591814
9.53268 56.5475 6.13159
9.54317 -55.7455 93.4731
9.867499 -56.23429 93.45097
9.5812 55.7465 5.48736
9.58828 -2.36598 39.9832
9.61754 27.937 46.7609
9.62217 14.8981 43.4896
9.6251 -47.1752 83.7095
9.63997 16.586 70.6885
9.6429 -44.1777 80.582
9.64851 -52.9245 72.5956
9.64924 60.732 5.89726
9.65802 52.0472 37.3602
9.67362 -53.7041 90.043
9.68728 -47.4386 84.1004
9.68801 -40.464 78.4058
9.7005 -55.91991 92.98739
9.71117 53.6621 26.6554
9.71849 48.598 28.5883
9.72019 2.23236 70.2542
10.0794 -44.18623 69.04426
9.73751 -19.3316 34.301
9.7636 -51.0447 91.5117
9.81797 -52.1252 75.0174
9.82309 -54.192 93.1408
9.896788 54.53062 2.493514
9.83699 -5.81193 71.9274
9.8409 -45.3445 81.5111
9.84358 -46.8541 83.0382
9.8448 -45.7046 68.7519
9.95473 -55.5279 91.93249
9.84918 -12.936 37.8581
9.8604 12.2371 42.1975
9.88454 -42.9151 74.972
9.89015 60.7381 7.10305
9.90722 52.6926 32.7753
9.91039 54.309 26.6378
9.916 -52.6041 87.8902
9.9455 55.3751 1.46961
9.95087 -44.8783 64.9629
9.97793 -5.20208 41.3511
10.0009 -55.3236 93.5658
10.0018 56.0691 1.07069
10.07837 60.15215 1.6973
10.016 -26.4935 76.0676
10.0265 57.5709 1.55057
10.0272 -1.84587 70.5431
10.01992 61.68781 3.886673
10.0362 -39.0746 52.8026
10.0467 6.52004 70.102
10.0808 51.8175 26.2179
10.0894 54.4124 3.75244
10.0972 -41.4135 74.2188
10.10004 -26.98647 2.195347
10.11145 -28.58574 2.69398
10.1208 -17.4792 74.6275
10.1218 53.2827 62.5874
10.122 61.3687 2.53007
10.1237 58.3324 7.03038
10.1364 -54.24 89.8597
10.16408 -55.57291 92.50529
10.20184 62.0639 6.342834
10.1542 11.6329 70.4883
10.17135 -26.64519 3.458629
10.1698 -12.7484 73.9718
10.39987 -51.51682 85.37055
10.26612 -29.65603 1.252841
10.1993 -9.10962 73.3344
10.1996 54.1018 29.3103
10.2023 60.8108 8.67923
10.2235 -44.8549 69.6295
10.2254 -51.4098 84.1419
10.2881 -52.7202 87.7173
10.2942 24.6669 48.6495
10.2983 55.2795 5.54345
10.3018 -21.7783 75.2317
10.3118 -8.20473 42.3387
10.3183 -30.1506 2.07628
10.3193 55.3073 24.9668
10.3298 50.3135 66.194
10.3317 55.9245 6.25107
10.3347 -14.9013 33.4053
10.3364 54.1859 57.981
10.33317 -26.56649 1.242771
10.3483 28.0155 47.1213
10.3503 -17.4665 32.5007
10.52704 -50.7398 83.26374
10.31509 -29.26729 3.627224
10.362 -24.5471 2.5269
10.38717 -24.52107 3.887065
10.4029 -37.9976 61.5608
10.4193 -51.7931 71.389
10.45895 -28.73733 0.7111831
10.4222 -48.5678 68.2942
10.43 -36.476 76.3621
10.4434 57.3595 1.33526
10.43458 -56.0347 92.91634
10.4512 61.0205 1.6403
10.4551 -8.8231 42.2531
10.4578 -38.9337 63.4408
10.4581 -43.0597 70.8601
10.4856 -30.401 3.44325
10.4912 62.2753 8.7597
10.54142 54.38762 2.3203
10.5178 60.7674 10.5156
10.5285 -37.3914 59.5845
10.5366 -24.5788 1.45791
10.538 -43.8161 71.1423
10.5439 59.0649 8.2886
10.5522 -38.6608 51.4905
10.5592 57.5696 7.12816
10.59 -9.20228 41.9063
10.63166 -55.85443 93.27137
10.5978 -54.4678 89.8153
10.6073 -30.2015 0.940965
10.6136 -51.1774 81.058
10.61038 -30.04312 4.296621
10.6234 56.3763 23.2418
10.637 -40.3494 65.2243
10.66219 55.68738 1.049111
10.6524 54.1178 24.0897
10.6778 -30.6692 1.83854
10.75285 56.21541 26.61545
10.6931 -50.8423 70.3342
10.7124 54.815 53.0367
10.81651 -11.08103 37.69604
10.7243 -31.4368 42.4301
10.7419 60.3697 13.9269
10.7511 21.8512 48.4598
10.7516 62.288 10.8879
10.7626 -34.3539 44.5152
10.98043 -29.44528 0.2623329
10.7877 -49.6763 69.3193
10.7894 54.3639 3.59468
10.8009 -42.7422 66.7431
10.8124 -37.0566 57.7869
10.825 -54.4439 92.5182
10.8353 55.6475 22.6554
10.8421 -18.9917 31.8313
10.8445 -26.2118 6.34495
10.8487 -48.2186 85.769
10.97815 54.76999 2.105377
10.8621 59.6347 17.931
10.8816 56.972 25.4774
10.8884 -36.3607 46.2438
10.99403 -24.76716 0.4894249
11.0696 56.76224 1.458774
10.8967 -30.8928 3.26964
10.9067 -23.9963 6.71729
11.0347 55.58559 1.454301
10.9165 45.5798 69.1474
10.9389 -51.52 84.9317
10.9467 57.9886 23.7795
10.9474 -51.0464 76.9308
10.9526 -51.0533 79.0968
10.955 -38.1861 50.1537
10.9611 57.1417 21.2921
10.9689 18.7471 47.5254
10.9517 -23.09748 2.935634
10.9996 58.9232 21.988
11.2014 -54.26621 89.55878
11.0106 8.18766 41.265
11.0203 -18.2168 27.5424
11.0235 -41.9346 67.5125
11.034 59.2151 9.88892
11.0501 -49.7775 83.2272
11.0681 -30.5592 4.39301
11.05718 62.0996 2.673419
11.0801 54.7816 49.0121
11.0816 61.9546 14.5331
11.083 -15.6148 28.311
11.0891 -55.3756 91.9323
11.1025 56.9291 6.97064
11.112 -37.9457 49.0089
11.24987 55.33246 6.006851
11.1152 -27.5968 0.287961
11.1235 53.2688 1.18188
11.1259 -44.5437 76.3168
11.1267 -23.3355 1.51813
11.1454 -32.5865 74.1768
11.27544 -52.51046 87.56365
11.1471 -22.643 5.04943
11.30525 54.73528 3.468857
11.24963 59.32485 0.9216927
11.1535 -29.2623 5.33009
11.1628 53.4534 41.5257
11.1835 15.8347 46.8173
11.21564 -49.59121 82.74577
11.1847 -21.8868 35.6075
11.1876 -30.4412 0.906583
11.1932 -40.3675 69.2588
11.1969 -23.135 36.834
11.1988 -13.3829 33.308
11.2125 24.8205 48.8419
11.32334 62.91545 6.285064
11.2142 58.188 8.05744
11.2191 -27.3406 39.7157
11.2301 -38.1739 72.5863
11.2315 -27.0787 6.57928
11.2318 -51.7631 90.5156
11.24 52.8599 1.82586
11.25198 54.08815 0.6926472
11.2503 61.6271 1.61616
11.2761 -22.7022 8.61461
11.2764 53.7053 37.3397
11.2905 -30.8333 1.6915
11.2998 13.5746 45.3467
11.3071 34.7996 70.8694
11.3205 -36.8728 56.2188
11.3237 58.3038 16.9398
11.3247 -22.2341 6.68193
11.3288 58.8808 13.1715
11.3532 -37.6689 67.6678
11.3588 41.6527 70.5527
11.3783 54.4509 45.7468
11.86535 -27.82601 0.1316214
11.401 -24.5552 8.52585
11.401 36.4312 35.666
11.4129 -35.8274 65.8885
11.4271 -10.1242 37.8849
11.428 5.73439 41.2199
11.431 -49.2169 88.0535
11.441 33.6992 39.2021
11.57183 55.07247 4.498035
11.4544 61.3501 18.4048
11.4719 -21.4048 8.47903
12.06202 58.44252 0.8461484
11.4824 -34.885 64.1126
11.4863 -34.9335 70.7706
11.60701 60.53691 1.012926
11.4992 -23.5576 0.611293
11.5122 -31.0072 3.03726
11.5171 63.3145 8.36053
11.5185 53.0042 3.37205
11.5385 58.2344 25.521
11.5429 -51.2774 73.825
11.5466 -19.5174 23.2223
11.57 -3.60444 43.2221
11.62965 56.71516 6.214293
11.5978 -17.0488 23.4098
11.6061 59.3967 24.0504
11.7138 55.56975 5.384162
11.6168 -10.1969 37.1624
11.6387 58.4063 9.48975
11.6431 1.93633 69.1208
11.6556 40.8013 31.3961
11.6646 13.7577 45.6463
11.6668 -21.6298 33.7136
11.6707 -19.9142 27.076
11.6785 -28.1533 72.1944
11.6975 -30.756 4.22037
11.74978 -25.71817 -0.0632323
11.7068 31.3593 42.6071
11.7133 45.4562 27.9714
11.7182 2.92413 41.4394
11.7265 60.5738 22.4035
11.7402 -32.3976 68.8655
11.756 -34.4534 62.1904
11.7587 54.9618 32.678
11.7631 57.7357 7.36322
11.7738 -21.1307 10.3642
11.7784 54.3883 5.77534
11.7843 -29.6161 5.20792
11.77681 -30.13849 0.9370798
11.7953 63.5527 10.6202
11.8058 -54.5416 89.6109
11.8267 -23.0356 10.768
11.8355 -18.1951 73.5494
12.20569 57.43524 1.089589
11.8406 18.8227 47.9918
11.8416 55.0281 6.40493
11.8423 21.7691 48.8506
11.8462 -51.1291 84.7441
11.8543 30.1003 44.4703
11.8548 -0.088026 42.2087
